# .PCD v0.7 - Point Cloud Data file format
VERSION 0.7
FIELDS x y z rgb
SIZE 4 4 4 4
TYPE F F F F
COUNT 1 1 1 1
WIDTH 1033
HEIGHT 1
VIEWPOINT 0 0 0 1 0 0 0
POINTS 1033
DATA ascii
-232.29715 76.064102 0.11066812 4.5917748e-41
-232.12695 76.071426 0.12566856 4.5917748e-41
-231.92815 76.049461 0.10885018 4.5917748e-41
-231.69522 76.056168 0.092205688 4.5917748e-41
-231.48399 76.062569 0.11344085 4.5917748e-41
-231.28468 76.073982 0.10484698 4.5917748e-41
-231.08562 76.084625 0.096649401 4.5917748e-41
-230.94926 76.092751 0.090803005 4.5917748e-41
-230.69878 76.109474 0.09802565 4.5917748e-41
-230.59314 76.118713 0.10217512 4.5917748e-41
-228.63037 76.198029 0.14965913 4.5917748e-41
-209.20688 76.038544 0.022037577 1.793662e-43
-209.05283 76.057648 0.039835554 1.793662e-43
-208.89557 76.068802 0.032761663 1.793662e-43
-208.73911 76.119423 0.071399555 1.793662e-43
-179.68588 76.016968 0.12045547 1.1800861e-38
-179.53223 76.009995 0.09390258 1.1800861e-38
-179.33258 76.021347 0.090922482 1.1800861e-38
-179.1759 76.032219 0.12195516 1.1800861e-38
-177.04581 76.10994 0.03951931 1.1800861e-38
-176.89507 76.075554 0.02070922 1.1800861e-38
-176.69386 76.085167 0.040729631 1.1800861e-38
-176.4951 76.096291 0.030675113 1.1800861e-38
-176.34521 76.105492 0.023131445 1.1800861e-38
-176.17191 76.161766 0.098291934 1.1800861e-38
-175.22955 76.159195 0.003578078 1.1800861e-38
-175.1293 76.144928 0.036318459 1.1800861e-38
-174.84377 76.133347 0.031565063 1.1800861e-38
-174.61972 76.103867 0.02525535 1.1800861e-38
-174.49551 76.086395 0.02418158 1.1800861e-38
-174.26039 76.155533 0.02149104 1.1800861e-38
-174.07565 76.131195 0.067128308 1.1800861e-38
-173.86475 76.171234 0.050280053 1.1800861e-38
-172.01399 76.194611 0.038164824 1.1800861e-38
-171.90414 76.067993 0.042569794 1.1800861e-38
-169.52789 76.152374 0.016521689 1.1800861e-38
-169.33636 76.161743 0.084549442 1.1800861e-38
-167.04782 76.136826 0.020944364 1.1800861e-38
-166.95555 76.138496 0.043078341 1.1800861e-38
-164.44879 76.194077 0.030706733 1.1800861e-38
-161.88506 76.136818 0.028360711 1.1800861e-38
-161.72226 76.146835 0.055155545 1.1800861e-38
-159.43668 76.130836 0.031891946 1.1800861e-38
-159.34447 76.140343 0.028253378 1.1800861e-38
-156.98116 76.198631 0.0031010062 1.1800861e-38
-155.26389 76.059456 0.074110001 1.1800861e-38
-155.08067 76.079048 0.027072513 1.1800861e-38
-146.75078 76.196129 0.0007827729 1.1800861e-38
-321.25598 76.337387 0.13446558 1.1800861e-38
-321.16589 76.333145 0.12238957 1.1800861e-38
-320.94781 76.336006 0.0054572299 1.1800861e-38
-318.84326 76.388474 0.15560186 1.1800861e-38
-318.66663 76.266479 0.064710468 1.1800861e-38
-318.56628 76.280579 0.053167071 1.1800861e-38
-316.25775 76.33931 0.18705718 1.1800861e-38
-316.15359 76.346458 0.18428504 1.1800861e-38
-313.69614 76.302269 0.078181379 1.1800861e-38
-313.57712 76.29174 0.13846545 1.1800861e-38
-311.52533 76.231537 0.018966749 1.1800861e-38
-311.26761 76.228668 0.093366623 1.1800861e-38
-311.15674 76.234169 0.060551468 1.1800861e-38
-309.42346 76.314629 0.12036158 1.1800861e-38
-309.34201 76.306602 0.071213365 1.1800861e-38
-307.01175 76.229752 0.10703562 1.1800861e-38
-306.88962 76.274704 0.062901489 1.1800861e-38
-306.78036 76.232193 0.1220651 1.1800861e-38
-304.93417 76.302811 0.026357695 1.1800861e-38
-304.43536 76.345482 0.07763584 1.1800861e-38
-304.3212 76.36068 0.036854543 1.1800861e-38
-301.44659 76.240822 0.17201827 1.1800861e-38
-301.27893 76.293968 0.11760002 1.1800861e-38
-301.18304 76.240852 0.12899806 1.1800861e-38
-298.82193 76.373856 0.055875875 1.1800861e-38
-298.7402 76.366119 0.054182019 1.1800861e-38
-296.26608 76.253387 0.021868398 1.1800861e-38
-296.17633 76.249252 0.03628701 1.1800861e-38
-295.2392 76.259811 0.17106304 1.1800861e-38
-295.14459 76.264481 0.16757856 1.1800861e-38
-292.82007 76.327049 0.13608523 1.1800861e-38
-292.66754 76.359695 0.037112527 1.1800861e-38
-292.55389 76.368469 0.070428252 1.1800861e-38
-290.25092 76.261276 0.079477146 1.1800861e-38
-290.15222 76.275055 0.022330076 1.1800861e-38
-289.99075 76.267715 0.01741197 1.1800861e-38
-287.83154 76.378082 0.11471537 1.1800861e-38
-287.64905 76.358414 0.019714013 1.1800861e-38
-287.57065 76.363136 0.018500688 1.1800861e-38
-286.62112 76.212143 0.084661141 1.1800861e-38
-286.50476 76.233994 0.060704719 1.1800861e-38
-286.37604 76.216461 0.061648518 1.1800861e-38
-284.20511 76.372833 0.1141097 1.1800861e-38
-284.03775 76.3834 0.020227944 1.1800861e-38
-283.94467 76.395081 0.064436629 1.1800861e-38
-282.21411 76.239525 0.031975962 1.1800861e-38
-282.07269 76.250549 0.033484742 1.1800861e-38
-281.90692 76.262894 0.021031197 1.1800861e-38
-281.6925 76.262619 0.024572115 1.1800861e-38
-281.49411 76.281792 0.013286431 1.1800861e-38
-281.32993 76.283516 0.025778743 1.1800861e-38
-279.06696 76.371201 0.068871811 1.1800861e-38
-278.90134 76.382767 0.02429626 1.1800861e-38
-278.75 76.392227 0.049414609 1.1800861e-38
-278.5452 76.394943 0.086088508 1.1800861e-38
-257.08246 76.235016 0.1590683 1.1754944e-38
-256.91675 76.241135 0.15602845 1.1754944e-38
-256.74088 76.241951 0.15004255 1.1754944e-38
-256.50015 76.254295 0.14868294 1.1754944e-38
-256.29068 76.278229 0.14025597 1.1754944e-38
-256.14948 76.296242 0.14469509 1.1754944e-38
-255.90668 76.301064 0.13520743 1.1754944e-38
-255.76312 76.289062 0.14457421 1.1754944e-38
-255.50903 76.264114 0.12068643 1.1754944e-38
-255.36543 76.271973 0.15500207 1.1754944e-38
-255.11288 76.277573 0.14188388 1.1754944e-38
-254.96893 76.285011 0.15973561 1.1754944e-38
-254.72087 76.293167 0.14657067 1.1754944e-38
-254.54463 76.285759 0.15723614 1.1754944e-38
-254.32649 76.329819 0.15222876 1.1754944e-38
-254.13136 76.348816 0.16777427 1.1754944e-38
-253.91756 76.355957 0.17089784 1.1754944e-38
-252.02834 76.234451 0.16769974 1.793662e-43
-251.85968 76.238968 0.15656145 1.793662e-43
-251.71729 76.225906 0.1501292 1.793662e-43
-244.87872 76.276886 0.16615638 1.793662e-43
-244.69211 76.245605 0.15530582 1.793662e-43
-244.50337 76.238182 0.14513807 1.793662e-43
-228.62852 76.251694 0.11827403 4.5917748e-41
-228.48222 76.247139 0.10927721 4.5917748e-41
-228.27637 76.257607 0.10058533 4.5917748e-41
-228.07933 76.270309 0.12173787 4.5917748e-41
-227.87828 76.281258 0.11298081 4.5917748e-41
-227.67961 76.292236 0.10463389 4.5917748e-41
-227.48083 76.303276 0.095983796 4.5917748e-41
-227.34444 76.312172 0.090098672 4.5917748e-41
-227.09265 76.325989 0.099101923 4.5917748e-41
-226.95522 76.333839 0.093118429 4.5917748e-41
-226.72127 76.349609 0.10603752 4.5917748e-41
-226.56493 76.3591 0.08818087 4.5917748e-41
-209.21391 76.25058 0.032071322 1.793662e-43
-209.06436 76.249542 0.025302896 1.793662e-43
-208.90616 76.263031 0.041008729 1.793662e-43
-208.74342 76.290718 0.078563496 1.793662e-43
-176.14166 76.246788 0.095770456 1.1800861e-38
-175.05589 76.204865 0.038224339 1.1800861e-38
-174.84616 76.214691 0.027177898 1.1800861e-38
-174.64659 76.225296 0.02580265 1.1800861e-38
-174.45908 76.234955 0.03494174 1.1800861e-38
-174.26126 76.245338 0.025501851 1.1800861e-38
-174.0459 76.257629 0.03477224 1.1800861e-38
-173.86533 76.266724 0.059574168 1.1800861e-38
-173.70282 76.311905 0.077515222 1.1800861e-38
-172.68607 76.295074 0.0076250061 1.1800861e-38
-172.47701 76.296844 0.016965246 1.1800861e-38
-172.24638 76.333099 0.015893871 1.1800861e-38
-172.04532 76.349335 0.035077184 1.1800861e-38
-171.89595 76.331345 0.024083199 1.1800861e-38
-169.51208 76.372009 0.019602513 1.1800861e-38
-169.3439 76.360794 0.09359213 1.1800861e-38
-167.05945 76.318253 0.029616296 1.1800861e-38
-166.96384 76.342041 0.028715761 1.1800861e-38
-164.45425 76.335785 0.01661724 1.1800861e-38
-164.33081 76.365898 0.077403218 1.1800861e-38
-161.89366 76.336998 0.016260868 1.1800861e-38
-161.72766 76.349823 0.063051924 1.1800861e-38
-159.44781 76.332962 0.029410411 1.1800861e-38
-159.3584 76.341766 0.02348702 1.1800861e-38
-157.0022 76.32663 0.0094010979 1.1800861e-38
-156.94843 76.310463 0.010685761 1.1800861e-38
-155.27837 76.264359 0.082299218 1.1800861e-38
-155.09082 76.281555 0.035481647 1.1800861e-38
-146.69604 76.330772 0.011685081 1.1800861e-38
-144.23044 76.394836 0.0220965 1.1800861e-38
-321.24857 76.505966 0.12573977 1.1800861e-38
-321.01514 76.443878 0.0089895427 1.1800861e-38
-320.92505 76.51503 0.0074334592 1.1800861e-38
-318.82977 76.553627 0.14485155 1.1800861e-38
-318.65967 76.486839 0.066298984 1.1800861e-38
-318.57419 76.461464 0.063983478 1.1800861e-38
-316.28174 76.539139 0.18954657 1.1800861e-38
-316.16479 76.545258 0.19335029 1.1800861e-38
-313.82492 76.516472 0.11721552 1.1800861e-38
-313.71173 76.501129 0.08695396 1.1800861e-38
-313.59586 76.486839 0.12017649 1.1800861e-38
-311.53729 76.430984 0.02782613 1.1800861e-38
-311.25174 76.431389 0.072507195 1.1800861e-38
-311.12488 76.436829 0.079774678 1.1800861e-38
-309.43811 76.510681 0.12900837 1.1800861e-38
-309.35178 76.533081 0.082162887 1.1800861e-38
-307.02661 76.4263 0.115417 1.1800861e-38
-306.91803 76.447685 0.08035218 1.1800861e-38
-306.78918 76.430405 0.12933207 1.1800861e-38
-304.44342 76.531921 0.072958112 1.1800861e-38
-304.33987 76.558067 0.045595791 1.1800861e-38
-304.19409 76.553642 0.19961441 1.1800861e-38
-301.45468 76.440445 0.18115702 1.1800861e-38
-301.31985 76.450249 0.14549114 1.1800861e-38
-301.19473 76.453308 0.1990135 1.1800861e-38
-298.83398 76.567398 0.064705402 1.1800861e-38
-298.74835 76.565201 0.064102978 1.1800861e-38
-296.94244 76.473434 0.0044553243 1.1800861e-38
-296.27783 76.451065 0.030722858 1.1800861e-38
-296.18918 76.446609 0.038455959 1.1800861e-38
-295.23694 76.459457 0.17605406 1.1800861e-38
-295.1423 76.465446 0.17263888 1.1800861e-38
-292.82837 76.555573 0.13537014 1.1800861e-38
-292.69974 76.567368 0.04229423 1.1800861e-38
-292.56458 76.562752 0.079212427 1.1800861e-38
-290.26215 76.462738 0.08807981 1.1800861e-38
-290.14865 76.468513 0.022441329 1.1800861e-38
-287.84235 76.570679 0.12330756 1.1800861e-38
-287.64084 76.59211 0.024579898 1.1800861e-38
-287.57349 76.592407 0.055148639 1.1800861e-38
-286.5 76.478989 0.13145578 1.1800861e-38
-286.38718 76.43541 0.1697177 1.1800861e-38
-284.04947 76.561218 0.02827324 1.1800861e-38
-283.93225 76.515717 0.048578277 1.1800861e-38
-281.61752 76.566978 0.022131562 1.1800861e-38
-281.47937 76.560089 0.01802839 1.1800861e-38
-281.33447 76.568146 0.043649826 1.1800861e-38
-279.06097 76.514542 0.071507618 1.1800861e-38
-278.94049 76.533615 0.016555928 1.1800861e-38
-278.68524 76.474747 0.031206818 1.1800861e-38
-278.54636 76.451263 0.03489241 1.1800861e-38
-278.28754 76.470062 0.020170454 1.1800861e-38
-278.1933 76.42662 0.081369109 1.1800861e-38
-277.21619 76.532898 0.11055451 1.1800861e-38
-277.12042 76.520836 0.027537517 1.1800861e-38
-276.96262 76.530075 0.022462325 1.1800861e-38
-276.75165 76.527573 0.018322974 1.1800861e-38
-276.52939 76.543098 0.024992548 1.1800861e-38
-276.33051 76.558022 0.018009577 1.1800861e-38
-276.10248 76.574799 0.024926245 1.1800861e-38
-275.87433 76.591629 0.03689722 1.1800861e-38
-275.74115 76.59227 0.11450568 1.1800861e-38
-274.60751 76.567345 0.023105703 1.1800861e-38
-274.45316 76.580261 0.017832346 1.1800861e-38
-274.25397 76.596939 0.011028059 1.1800861e-38
-256.2616 76.406799 0.18756348 1.1754944e-38
-255.99603 76.423302 0.19993535 1.1754944e-38
-252.02513 76.424988 0.17558914 1.793662e-43
-251.86346 76.438362 0.16501865 1.793662e-43
-251.67233 76.519287 0.13559103 1.793662e-43
-251.50464 76.556473 0.025829908 1.793662e-43
-251.30334 76.563377 0.014518864 1.793662e-43
-244.86481 76.467049 0.17195888 1.793662e-43
-244.70317 76.442909 0.16369459 1.793662e-43
-244.51619 76.432091 0.15267448 1.793662e-43
-224.64619 76.451645 0.12066422 4.5917748e-41
-224.52429 76.472015 0.10983381 4.5917748e-41
-224.34485 76.484444 0.10225805 4.5917748e-41
-224.09407 76.474815 0.090648971 4.5917748e-41
-223.89111 76.507111 0.11261511 4.5917748e-41
-223.69934 76.503448 0.10714716 4.5917748e-41
-223.49965 76.511269 0.099418968 4.5917748e-41
-223.34537 76.511925 0.094350323 4.5917748e-41
-223.1207 76.529694 0.10616099 4.5917748e-41
-222.89514 76.538216 0.091482699 4.5917748e-41
-222.7106 76.555969 0.11180803 4.5917748e-41
-222.57631 76.565033 0.10640484 4.5917748e-41
-209.2189 76.439583 0.047115467 1.793662e-43
-209.07475 76.448563 0.03376003 1.793662e-43
-208.90933 76.460846 0.025907012 1.793662e-43
-208.73026 76.505539 0.08312881 1.793662e-43
-170.14357 76.557381 0.060817406 1.793662e-43
-169.9915 76.536346 0.11316946 1.793662e-43
-169.60156 76.499313 0.020908922 1.1800861e-38
-169.48465 76.510544 0.031173542 1.1800861e-38
-169.27061 76.497429 0.016999753 1.1800861e-38
-169.15254 76.500282 0.029715193 1.1800861e-38
-168.92599 76.523666 0.015521302 1.1800861e-38
-168.75526 76.550621 0.064039938 1.1800861e-38
-167.66422 76.563408 0.032541201 1.1800861e-38
-167.46443 76.570488 0.042241443 1.1800861e-38
-167.32596 76.577026 0.057815872 1.1800861e-38
-167.15869 76.575211 0.027574819 1.1800861e-38
-166.95248 76.55072 0.045598276 1.1800861e-38
-166.7606 76.591026 0.090486743 1.1800861e-38
-164.52151 76.527679 0.014008739 1.1800861e-38
-164.30988 76.516434 0.082465291 1.1800861e-38
-161.90973 76.535385 0.025072446 1.1800861e-38
-161.74255 76.547684 0.071269058 1.1800861e-38
-159.4626 76.531967 0.037439123 1.1800861e-38
-159.37314 76.542618 0.031585157 1.1800861e-38
-157.03778 76.491455 0.025433172 1.1800861e-38
-156.91797 76.540634 0.025597565 1.1800861e-38
-155.2471 76.465485 0.08740101 1.1800861e-38
-155.09105 76.478699 0.041911434 1.1800861e-38
-146.71674 76.552238 0.021676952 1.1800861e-38
-144.24139 76.552574 0.029434413 1.1800861e-38
-144.15533 76.518997 0.023151219 1.1800861e-38
-318.66763 76.636574 0.066478625 1.1800861e-38
-318.59122 76.620445 0.069835007 1.1800861e-38
-316.29117 76.6987 0.19678321 1.1800861e-38
-316.19138 76.704712 0.19414783 1.1800861e-38
-313.82959 76.700455 0.14678302 1.1800861e-38
-313.72913 76.701866 0.095880151 1.1800861e-38
-311.54926 76.630432 0.036685683 1.1800861e-38
-311.26978 76.631607 0.08009275 1.1800861e-38
-311.14639 76.637177 0.091079518 1.1800861e-38
-309.42633 76.710289 0.10056714 1.1800861e-38
-309.34265 76.704498 0.11660057 1.1800861e-38
-307.04211 76.621559 0.12376465 1.1800861e-38
-306.92752 76.639008 0.088113636 1.1800861e-38
-306.7428 76.643196 0.19226874 1.1800861e-38
-304.43643 76.755493 0.062221617 1.1800861e-38
-304.32816 76.752739 0.058986995 1.1800861e-38
-301.43372 76.642258 0.17011231 1.1800861e-38
-301.29208 76.651718 0.15738861 1.1800861e-38
-298.84662 76.765884 0.073659018 1.1800861e-38
-298.76013 76.76384 0.073078297 1.1800861e-38
-296.96436 76.64257 0.010068297 1.1800861e-38
-296.2854 76.649315 0.038974263 1.1800861e-38
-296.19556 76.656158 0.024555862 1.1800861e-38
-295.24274 76.661209 0.18489088 1.1800861e-38
-295.14917 76.669586 0.18161935 1.1800861e-38
-292.83755 76.752335 0.14394313 1.1800861e-38
-292.65265 76.765732 0.033126306 1.1800861e-38
-292.57172 76.756332 0.079065986 1.1800861e-38
-290.23938 76.676109 0.057137568 1.1800861e-38
-290.1351 76.674469 0.038599908 1.1800861e-38
-287.85364 76.770164 0.13221906 1.1800861e-38
-287.6575 76.794151 0.039254073 1.1800861e-38
-287.58789 76.792084 0.064219192 1.1800861e-38
-286.49094 76.637367 0.15118502 1.1800861e-38
-286.39774 76.637604 0.17825949 1.1800861e-38
-284.08386 76.788643 0.049497984 1.1800861e-38
-283.97272 76.764832 0.028830133 1.1800861e-38
-281.63599 76.75573 0.030429192 1.1800861e-38
-281.49866 76.754944 0.025351606 1.1800861e-38
-281.37302 76.754913 0.036179427 1.1800861e-38
-279.07135 76.725067 0.080329098 1.1800861e-38
-278.95026 76.7314 0.025510211 1.1800861e-38
-276.85526 76.604248 0.056621473 1.1800861e-38
-276.70682 76.618248 0.049781751 1.1800861e-38
-276.48233 76.712227 0.0095516071 1.1800861e-38
-276.32971 76.699829 0.038797546 1.1800861e-38
-276.06781 76.66214 0.046960115 1.1800861e-38
-275.94287 76.671448 0.049713101 1.1800861e-38
-275.73151 76.601593 0.024416689 1.1800861e-38
-274.84183 76.641251 0.16622008 1.1800861e-38
-274.65829 76.653885 0.052427825 1.1800861e-38
-274.51126 76.67852 0.015372639 1.1800861e-38
-274.25641 76.684753 0.031321988 1.1800861e-38
-274.0585 76.661201 0.015148419 1.1800861e-38
-273.91232 76.680061 0.011657313 1.1800861e-38
-272.05417 76.739647 0.087910339 1.1800861e-38
-271.91779 76.761955 0.016631201 1.1800861e-38
-271.7673 76.76165 0.025827222 1.1800861e-38
-271.56842 76.775955 0.018942336 1.1800861e-38
-271.35867 76.790321 0.025898883 1.1800861e-38
-251.87851 76.624588 0.19630669 1.793662e-43
-251.69269 76.701599 0.096674241 1.793662e-43
-251.53076 76.66938 0.019093711 1.793662e-43
-251.34201 76.674561 0.018035304 1.793662e-43
-251.18457 76.674271 0.004860241 1.793662e-43
-244.84052 76.60688 0.17846903 1.793662e-43
-244.66829 76.617729 0.1651061 1.793662e-43
-244.48175 76.649338 0.16077465 1.793662e-43
-244.25272 76.760086 0.081779569 1.793662e-43
-244.09483 76.767235 0.057931926 1.793662e-43
-223.43295 76.602684 0.17202316 4.5917748e-41
-223.2928 76.60688 0.14620857 4.5917748e-41
-223.09818 76.619873 0.15821971 4.5917748e-41
-222.90318 76.642563 0.16479024 4.5917748e-41
-222.75809 76.651459 0.158786 4.5917748e-41
-222.59857 76.671707 0.16650102 4.5917748e-41
-220.60928 76.692291 0.1451696 4.5917748e-41
-220.50726 76.653488 0.11953925 4.5917748e-41
-220.3018 76.676292 0.11447432 4.5917748e-41
-220.10274 76.689461 0.10550496 4.5917748e-41
-219.90454 76.701515 0.096780084 4.5917748e-41
-219.7608 76.731873 0.098385736 4.5917748e-41
-219.53638 76.718437 0.10874417 4.5917748e-41
-219.3177 76.744728 0.095848367 4.5917748e-41
-219.10851 76.738251 0.11453799 4.5917748e-41
-218.90941 76.750618 0.10528556 4.5917748e-41
-218.72421 76.737579 0.10141733 4.5917748e-41
-218.59494 76.731796 0.10218219 4.5917748e-41
-209.22946 76.645844 0.062118109 1.793662e-43
-209.0873 76.650116 0.041714482 1.793662e-43
-208.91501 76.660568 0.034149282 1.793662e-43
-208.73253 76.690231 0.090727955 1.793662e-43
-170.2131 76.700104 0.10588422 1.793662e-43
-170.13246 76.711006 0.067528501 1.793662e-43
-169.92715 76.725739 0.10544792 1.793662e-43
-169.12393 76.674828 0.13758746 1.1800861e-38
-168.91577 76.66304 0.12570874 1.1800861e-38
-168.69147 76.61972 0.11155191 1.1800861e-38
-167.68716 76.631714 0.018144252 1.1800861e-38
-167.47128 76.650055 0.046095725 1.1800861e-38
-167.26469 76.663101 0.036769819 1.1800861e-38
-167.0704 76.676796 0.027235249 1.1800861e-38
-166.91049 76.672668 0.037422307 1.1800861e-38
-166.73041 76.659508 0.019584099 1.1800861e-38
-166.51436 76.69368 0.016056892 1.1800861e-38
-166.33295 76.676575 0.027451193 1.1800861e-38
-165.23305 76.733727 0.013249929 1.1800861e-38
-165.1515 76.755768 0.026951022 1.1800861e-38
-164.93939 76.729195 0.024521992 1.1800861e-38
-164.76321 76.753876 0.062715977 1.1800861e-38
-164.53255 76.751457 0.020489799 1.1800861e-38
-164.3315 76.742538 0.092709221 1.1800861e-38
-162.01338 76.727768 0.044254661 1.1800861e-38
-161.88112 76.737572 0.013802484 1.1800861e-38
-161.75829 76.747078 0.079589687 1.1800861e-38
-159.45378 76.735207 0.0366439 1.1800861e-38
-159.35638 76.740166 0.058091711 1.1800861e-38
-157.05582 76.70903 0.035400145 1.1800861e-38
-156.93608 76.730194 0.013939415 1.1800861e-38
-156.73203 76.789619 0.089851432 1.1800861e-38
-155.26025 76.667816 0.095412962 1.1800861e-38
-155.10312 76.679726 0.050784621 1.1800861e-38
-146.73366 76.761238 0.030977273 1.1800861e-38
-144.2551 76.75251 0.038728349 1.1800861e-38
-144.1727 76.758987 0.034372456 1.1800861e-38
-139.90065 76.720284 0.03093385 1.1800861e-38
-139.75104 76.727425 0.078873381 1.1800861e-38
-313.83792 76.845459 0.14536287 1.1800861e-38
-313.74609 76.860664 0.10304027 1.1800861e-38
-311.60339 76.906616 0.050058186 1.1800861e-38
-311.51855 76.912544 0.047819756 1.1800861e-38
-311.30106 76.908737 0.089037776 1.1800861e-38
-311.17145 76.901756 0.097460173 1.1800861e-38
-309.45703 76.942993 0.10036267 1.1800861e-38
-309.35516 76.914337 0.14709648 1.1800861e-38
-307.0267 76.870872 0.10772466 1.1800861e-38
-306.91174 76.819489 0.097755164 1.1800861e-38
-304.46283 76.946625 0.06844455 1.1800861e-38
-304.34775 76.94606 0.068222925 1.1800861e-38
-301.44223 76.843437 0.17945899 1.1800861e-38
-301.30139 76.850273 0.16675857 1.1800861e-38
-298.8504 76.963478 0.080945298 1.1800861e-38
-298.76547 76.956299 0.093480989 1.1800861e-38
-297.00528 76.839417 0.020360142 1.1800861e-38
-296.96259 76.905807 0.022053406 1.1800861e-38
-296.27026 76.852013 0.043339059 1.1800861e-38
-295.26666 76.8629 0.17995673 1.1800861e-38
-295.17181 76.866829 0.1763864 1.1800861e-38
-292.8222 76.956558 0.11974661 1.1800861e-38
-292.68839 76.965034 0.067685232 1.1800861e-38
-292.56485 76.97052 0.066053987 1.1800861e-38
-290.24185 76.868378 0.063056737 1.1800861e-38
-290.1463 76.873276 0.048977647 1.1800861e-38
-287.86496 76.969643 0.14113054 1.1800861e-38
-287.66 76.966049 0.038958803 1.1800861e-38
-287.59225 76.998901 0.047689937 1.1800861e-38
-286.61206 76.829071 0.17247429 1.1800861e-38
-286.48605 76.836937 0.15927169 1.1800861e-38
-284.04831 76.964813 0.032454737 1.1800861e-38
-283.97757 76.972488 0.072970912 1.1800861e-38
-281.65289 76.953712 0.039038114 1.1800861e-38
-281.47675 76.962845 0.017100263 1.1800861e-38
-281.38049 76.972534 0.038442336 1.1800861e-38
-279.08325 76.88652 0.087084621 1.1800861e-38
-278.94727 76.881729 0.031562842 1.1800861e-38
-276.62402 76.904999 0.1121712 1.1800861e-38
-276.50119 76.929726 0.020747973 1.1800861e-38
-276.38062 76.932724 0.0512693 1.1800861e-38
-274.04987 76.918625 0.040705524 1.1800861e-38
-273.92169 76.927032 0.0316073 1.1800861e-38
-272.06281 76.852676 0.093442358 1.1800861e-38
-271.8988 76.874458 0.015765777 1.1800861e-38
-271.78021 76.849197 0.030050308 1.1800861e-38
-271.57468 76.853897 0.02250734 1.1800861e-38
-271.35974 76.865494 0.013115374 1.1800861e-38
-271.17862 76.840706 0.024511188 1.1800861e-38
-270.21118 76.910866 0.10323641 1.1800861e-38
-270.05853 76.912727 0.035424724 1.1800861e-38
-269.91504 76.921913 0.01339819 1.1800861e-38
-269.72385 76.954941 0.011954923 1.1800861e-38
-269.50488 76.905167 0.020711761 1.1800861e-38
-269.30542 76.918922 0.013991715 1.1800861e-38
-269.09479 76.9328 0.018176466 1.1800861e-38
-268.88763 76.945358 0.023440046 1.1800861e-38
-268.70978 76.960472 0.022458516 1.1800861e-38
-251.67522 76.83812 0.16195333 1.793662e-43
-251.52667 76.853485 0.026655287 1.793662e-43
-251.29979 76.855965 0.023098275 1.793662e-43
-244.84848 76.80806 0.18681885 1.793662e-43
-244.65576 76.816147 0.17965153 1.793662e-43
-244.5199 76.811325 0.1718251 1.793662e-43
-244.24574 76.922119 0.046448961 1.793662e-43
-244.12677 76.927567 0.038375009 1.793662e-43
-243.9375 76.900391 0.086965948 1.793662e-43
-240.9762 76.949539 0.19318926 1.1754944e-38
-240.64713 76.914795 0.16131064 1.1754944e-38
-240.4899 76.915634 0.1586463 1.1754944e-38
-240.25885 76.958382 0.10488249 1.1754944e-38
-240.04871 76.964378 0.041487116 1.1754944e-38
-239.90573 76.968964 0.036555819 1.1754944e-38
-239.70203 76.983368 0.024622751 1.1754944e-38
-239.46228 76.986214 0.13335447 1.1754944e-38
-218.69283 76.803566 0.10497511 4.5917748e-41
-216.68979 76.855736 0.10632186 4.5917748e-41
-216.54369 76.87484 0.10055821 4.5917748e-41
-216.3522 76.877762 0.093369715 4.5917748e-41
-216.17377 76.898575 0.11225042 4.5917748e-41
-215.91731 76.908012 0.091345347 4.5917748e-41
-215.74353 76.924667 0.12472692 4.5917748e-41
-215.53444 76.934296 0.11524722 4.5917748e-41
-215.30711 76.917641 0.09515366 4.5917748e-41
-215.14153 76.927193 0.087641954 4.5917748e-41
-214.94092 76.957184 0.11174937 4.5917748e-41
-214.7041 76.950562 0.094501339 4.5917748e-41
-214.53349 76.962067 0.078476302 4.5917748e-41
-209.24225 76.845444 0.070803687 1.793662e-43
-209.08974 76.849953 0.027683139 1.793662e-43
-208.91153 76.863266 0.040512092 1.793662e-43
-208.73441 76.892166 0.099011995 1.793662e-43
-188.47546 76.930023 0.026192026 1.1754944e-38
-188.26971 76.931618 0.026814139 1.1754944e-38
-188.12065 76.929565 0.045169491 1.1754944e-38
-187.92603 76.938004 0.036336966 1.1754944e-38
-187.72351 76.940193 0.025794808 1.1754944e-38
-187.50494 76.938004 0.040137481 1.1754944e-38
-187.32553 76.945847 0.029308982 1.1754944e-38
-187.10684 76.953506 0.022770293 1.1754944e-38
-186.63374 76.895332 0.031950481 1.1754944e-38
-186.48532 76.902344 0.043511596 1.1754944e-38
-186.30055 76.928192 0.043748762 1.1754944e-38
-170.32866 76.958916 0.0437143 1.793662e-43
-170.13045 76.911987 0.07631702 1.793662e-43
-169.90491 76.89489 0.084266461 1.793662e-43
-164.92767 76.812134 0.030382844 1.1800861e-38
-164.72031 76.827347 0.0214149 1.1800861e-38
-164.49796 76.846352 0.048381034 1.1800861e-38
-164.28705 76.867432 0.088085048 1.1800861e-38
-162.02971 76.926468 0.053069316 1.1800861e-38
-161.91284 76.941467 0.028741868 1.1800861e-38
-161.71056 76.972488 0.023346446 1.1800861e-38
-161.48691 76.998703 0.040330417 1.1800861e-38
-159.46674 76.942429 0.023559166 1.1800861e-38
-159.36276 76.95015 0.066204295 1.1800861e-38
-157.09491 76.911095 0.021908058 1.1800861e-38
-156.93289 76.930237 0.023385108 1.1800861e-38
-156.71437 76.923302 0.11111029 1.1800861e-38
-155.24243 76.868073 0.053129591 1.1800861e-38
-155.10626 76.882507 0.059121247 1.1800861e-38
-146.86362 76.94545 0.019555189 1.1800861e-38
-146.71579 76.968353 0.042492785 1.1800861e-38
-144.29137 76.948929 0.023556162 1.1800861e-38
-144.17192 76.955902 0.02421537 1.1800861e-38
-139.9126 76.879707 0.037635226 1.1800861e-38
-139.76694 76.886879 0.086140051 1.1800861e-38
-137.45673 76.875557 0.030686282 1.1800861e-38
-137.35809 76.880089 0.10014854 1.1800861e-38
-309.60205 77.062088 0.15052649 1.1800861e-38
-309.4646 77.053909 0.097885922 1.1800861e-38
-309.38745 77.081467 0.10701317 1.1800861e-38
-307.05408 77.116051 0.12752417 1.1800861e-38
-306.90222 77.110329 0.11634228 1.1800861e-38
-304.46179 77.153168 0.074286506 1.1800861e-38
-304.36945 77.142624 0.10088617 1.1800861e-38
-301.42715 77.046562 0.16901959 1.1800861e-38
-301.30676 77.049728 0.17576015 1.1800861e-38
-298.86432 77.164398 0.090276837 1.1800861e-38
-298.78613 77.159317 0.10737924 1.1800861e-38
-297.00491 77.09478 0.032028839 1.1800861e-38
-296.28165 77.063835 0.05148831 1.1800861e-38
-295.2746 77.062546 0.18876739 1.1800861e-38
-295.17975 77.066475 0.18519714 1.1800861e-38
-292.83405 77.159744 0.12877403 1.1800861e-38
-292.73456 77.129555 0.066830911 1.1800861e-38
-292.57315 77.156349 0.074651055 1.1800861e-38
-290.25128 77.067596 0.071769595 1.1800861e-38
-290.15973 77.072418 0.055838421 1.1800861e-38
-287.87857 77.176498 0.15044634 1.1800861e-38
-287.65521 77.191147 0.053312629 1.1800861e-38
-286.62347 77.08139 0.18269902 1.1800861e-38
-286.49606 77.036491 0.16781484 1.1800861e-38
-284.08807 77.184708 0.061418612 1.1800861e-38
-283.92932 77.124474 0.081840739 1.1800861e-38
-281.66812 77.148376 0.047449887 1.1800861e-38
-281.46274 77.162956 0.020816358 1.1800861e-38
-281.38 77.167007 0.082273483 1.1800861e-38
-279.05853 77.124603 0.10701973 1.1800861e-38
-278.9718 77.130234 0.094669305 1.1800861e-38
-276.63818 77.096329 0.12050657 1.1800861e-38
-276.5116 77.124077 0.027960321 1.1800861e-38
-276.39133 77.098961 0.10294148 1.1800861e-38
-274.06989 77.115654 0.049799662 1.1800861e-38
-273.95905 77.110123 0.03555635 1.1800861e-38
-272.03485 77.061584 0.063628361 1.1800861e-38
-271.86005 77.039574 0.013207818 1.1800861e-38
-271.78418 77.089539 0.14802921 1.1800861e-38
-269.61945 77.00769 0.13462421 1.1800861e-38
-269.50018 77.021942 0.025575984 1.1800861e-38
-269.3299 77.0336 0.019812638 1.1800861e-38
-269.11377 77.014801 0.011084825 1.1800861e-38
-268.90552 77.026901 0.015113262 1.1800861e-38
-268.71576 77.034958 0.025777506 1.1800861e-38
-267.69382 77.057068 0.021908572 1.1800861e-38
-267.47046 77.072334 0.012336943 1.1800861e-38
-267.26385 77.111198 0.010812814 1.1800861e-38
-267.04614 77.118019 0.013521311 1.1800861e-38
-266.89798 77.083008 0.028380336 1.1800861e-38
-266.7677 77.095314 0.06620723 1.1800861e-38
-264.8508 77.197433 0.151502 1.1800861e-38
-264.73807 77.199715 0.14721698 1.1800861e-38
-251.63461 77.053505 0.06719555 1.793662e-43
-251.46991 77.116257 0.023697516 1.793662e-43
-251.31123 77.060905 0.042353 1.793662e-43
-244.82465 77.09848 0.19210964 1.793662e-43
-244.6875 77.072601 0.18930221 1.793662e-43
-244.53004 77.017799 0.18894935 1.793662e-43
-244.26022 77.07338 0.053888783 1.793662e-43
-244.12466 77.082649 0.045331277 1.793662e-43
-243.93579 77.088501 0.094731778 1.793662e-43
-240.46474 77.02037 0.19603497 1.1754944e-38
-240.2516 77.026619 0.19850999 1.1754944e-38
-240.05852 77.033722 0.045105118 1.1754944e-38
-239.91125 77.078583 0.040942032 1.1754944e-38
-239.70851 77.092728 0.032996766 1.1754944e-38
-239.51176 77.139603 0.024971986 1.1754944e-38
-215.00226 77.001656 0.14297172 4.5917748e-41
-214.80412 77.012222 0.13536321 4.5917748e-41
-214.66119 77.014084 0.14077926 4.5917748e-41
-212.6216 77.094856 0.095555298 4.5917748e-41
-212.49036 77.101814 0.091166139 4.5917748e-41
-212.26756 77.117371 0.081934147 4.5917748e-41
-212.04498 77.143051 0.10200461 4.5917748e-41
-211.84705 77.144402 0.095722161 4.5917748e-41
-211.65912 77.133377 0.095313549 4.5917748e-41
-211.49692 77.150116 0.11416775 4.5917748e-41
-211.29709 77.158585 0.1048427 4.5917748e-41
-211.10294 77.170395 0.096827112 4.5917748e-41
-210.90921 77.183105 0.11129909 4.5917748e-41
-210.71832 77.194443 0.098447576 4.5917748e-41
-209.25317 77.084595 0.023901796 1.793662e-43
-209.09497 77.09623 0.028571909 1.793662e-43
-208.8924 77.119446 0.015376207 1.793662e-43
-208.74271 77.076935 0.10690354 1.793662e-43
-188.4704 77.005737 0.054129712 1.1754944e-38
-188.33795 77.010124 0.032747094 1.1754944e-38
-188.15286 77.013718 0.025890559 1.1754944e-38
-187.91092 77.015823 0.037604801 1.1754944e-38
-187.71207 77.024399 0.032409102 1.1754944e-38
-187.5106 77.025131 0.047644075 1.1754944e-38
-187.3107 77.029968 0.037897084 1.1754944e-38
-187.11108 77.037415 0.028405262 1.1754944e-38
-186.87914 77.063919 0.041706998 1.1754944e-38
-186.68854 77.057465 0.033508357 1.1754944e-38
-186.52596 77.046143 0.05452067 1.1754944e-38
-186.30969 77.050957 0.043007761 1.1754944e-38
-186.08141 77.113121 0.024273643 1.1754944e-38
-185.85838 77.117035 0.015163544 1.1754944e-38
-185.6275 77.11338 0.026057189 1.1754944e-38
-185.48485 77.11924 0.020811053 1.1754944e-38
-185.35031 77.138779 0.083064899 1.1754944e-38
-170.30125 77.114883 0.039399412 1.793662e-43
-170.10181 77.12677 0.046343461 1.793662e-43
-169.94627 77.145065 0.085717432 1.793662e-43
-162.02475 77.036995 0.057250075 1.1800861e-38
-161.89012 77.045197 0.046840172 1.1800861e-38
-161.69371 77.063828 0.044976432 1.1800861e-38
-161.506 77.052574 0.047563236 1.1800861e-38
-161.30737 77.035385 0.017481092 1.1800861e-38
-161.17285 77.054016 0.072630875 1.1800861e-38
-160.10403 77.070648 0.040626481 1.1800861e-38
-159.961 77.079102 0.033905461 1.1800861e-38
-159.7619 77.089294 0.023837274 1.1800861e-38
-159.54626 77.103836 0.036928743 1.1800861e-38
-159.34598 77.116486 0.026832715 1.1800861e-38
-159.15576 77.088905 0.030796496 1.1800861e-38
-158.89986 77.108704 0.013402077 1.1800861e-38
-158.75789 77.119316 0.041725159 1.1800861e-38
-157.66083 77.146873 0.020836223 1.1800861e-38
-157.51791 77.156693 0.033171937 1.1800861e-38
-157.30859 77.161392 0.022708219 1.1800861e-38
-157.07385 77.141937 0.023490991 1.1800861e-38
-156.91025 77.134239 0.036412567 1.1800861e-38
-156.72578 77.135735 0.12028021 1.1800861e-38
-155.24246 77.063461 0.063773081 1.1800861e-38
-155.12369 77.080063 0.037310958 1.1800861e-38
-152.82874 77.162964 0.05329201 1.1800861e-38
-146.86351 77.144508 0.022066941 1.1800861e-38
-146.73039 77.163254 0.051087812 1.1800861e-38
-144.28783 77.150154 0.023378661 1.1800861e-38
-144.18633 77.155167 0.033442393 1.1800861e-38
-139.92583 77.08062 0.045982499 1.1800861e-38
-139.78024 77.084747 0.094764546 1.1800861e-38
-137.46846 77.036507 0.0377522 1.1800861e-38
-137.3727 77.038902 0.10723685 1.1800861e-38
-133.24146 77.134323 0.023597211 1.1800861e-38
-133.14574 77.138962 0.014759138 1.1800861e-38
-132.95364 77.147141 0.040474817 1.1800861e-38
-304.47641 77.311485 0.081001863 1.1800861e-38
-304.36914 77.301895 0.11344823 1.1800861e-38
-301.43604 77.246925 0.17846395 1.1800861e-38
-301.31812 77.249496 0.18210635 1.1800861e-38
-298.85385 77.35244 0.093652256 1.1800861e-38
-298.79706 77.349777 0.14923993 1.1800861e-38
-296.30457 77.248665 0.064483203 1.1800861e-38
-295.28253 77.262199 0.19757842 1.1800861e-38
-295.18387 77.273102 0.19415452 1.1800861e-38
-292.84454 77.360031 0.13763143 1.1800861e-38
-292.7352 77.343353 0.079881243 1.1800861e-38
-292.58484 77.354614 0.083939075 1.1800861e-38
-290.24615 77.277771 0.073543221 1.1800861e-38
-290.17252 77.271576 0.067489959 1.1800861e-38
-287.89206 77.372971 0.15930775 1.1800861e-38
-287.67834 77.313126 0.051566228 1.1800861e-38
-286.51682 77.236855 0.17306387 1.1800861e-38
-284.09723 77.390396 0.071309835 1.1800861e-38
-283.98602 77.347565 0.099980257 1.1800861e-38
-281.68155 77.347748 0.055980094 1.1800861e-38
-281.47067 77.363876 0.028893327 1.1800861e-38
-281.38818 77.359634 0.12437944 1.1800861e-38
-279.2001 77.303947 0.14407292 1.1800861e-38
-279.06686 77.323761 0.11605147 1.1800861e-38
-278.97058 77.287079 0.099679112 1.1800861e-38
-276.63608 77.307343 0.097943217 1.1800861e-38
-276.50183 77.327141 0.041162625 1.1800861e-38
-274.20734 77.300392 0.086024746 1.1800861e-38
-274.05957 77.317307 0.050464988 1.1800861e-38
-273.93719 77.328583 0.029288244 1.1800861e-38
-272.03934 77.232552 0.070592403 1.1800861e-38
-271.89389 77.259262 0.059617806 1.1800861e-38
-271.77844 77.283051 0.17994216 1.1800861e-38
-269.60641 77.227127 0.10121419 1.1800861e-38
-269.46857 77.245239 0.031828411 1.1800861e-38
-269.36768 77.252167 0.039311826 1.1800861e-38
-267.04822 77.394836 0.098991513 1.1800861e-38
-266.89594 77.219955 0.01963751 1.1800861e-38
-266.77203 77.214027 0.071426466 1.1800861e-38
-264.85254 77.292099 0.17100579 1.1800861e-38
-264.69278 77.294914 0.02565437 1.1800861e-38
-264.52814 77.285568 0.0070834812 1.1800861e-38
-264.29517 77.268814 0.010734163 1.1800861e-38
-264.07898 77.293152 0.0039836126 1.1800861e-38
-263.97974 77.300438 0.033407316 1.1800861e-38
-262.88028 77.342049 0.045902442 1.1800861e-38
-262.73618 77.355492 0.017295938 1.1800861e-38
-262.55057 77.336182 0.040973749 1.1800861e-38
-262.35007 77.330116 0.036706287 1.1800861e-38
-262.14917 77.340645 0.029482409 1.1800861e-38
-261.9447 77.349556 0.048843544 1.1800861e-38
-261.73779 77.362968 0.040409453 1.1800861e-38
-261.52115 77.377075 0.031687543 1.1800861e-38
-251.63408 77.256775 0.062489506 1.793662e-43
-251.47644 77.251831 0.014772127 1.793662e-43
-251.31812 77.256004 0.059724659 1.793662e-43
-244.75862 77.347824 0.1995748 1.793662e-43
-244.54285 77.219086 0.19732264 1.793662e-43
-244.25589 77.25412 0.061458953 1.793662e-43
-244.13527 77.317314 0.046847925 1.793662e-43
-243.94017 77.28054 0.10292397 1.793662e-43
-241.8447 77.302963 0.075613037 1.1754944e-38
-241.74214 77.291649 0.018078405 1.1754944e-38
-241.53357 77.319031 0.0179323 1.1754944e-38
-241.27531 77.316864 0.025468016 1.1754944e-38
-241.07477 77.248062 0.025039524 1.1754944e-38
-240.87289 77.251717 0.038807888 1.1754944e-38
-240.66853 77.313293 0.029107755 1.1754944e-38
-240.46243 77.331146 0.020660155 1.1754944e-38
-240.29234 77.330658 0.037655752 1.1754944e-38
-240.08772 77.330048 0.031937622 1.1754944e-38
-239.90271 77.291161 0.049254864 1.1754944e-38
-239.7171 77.290649 0.04109459 1.1754944e-38
-239.51144 77.304108 0.034939356 1.1754944e-38
-239.32758 77.342781 0.029806916 1.1754944e-38
-239.14587 77.385551 0.013534055 1.1754944e-38
-212.10297 77.20269 0.14998464 4.5917748e-41
-211.90562 77.207489 0.13559881 4.5917748e-41
-211.66357 77.210159 0.09871725 4.5917748e-41
-211.50314 77.228539 0.11757662 4.5917748e-41
-211.30379 77.239777 0.10838343 4.5917748e-41
-211.10788 77.250465 0.10023455 4.5917748e-41
-210.91379 77.266014 0.11483026 4.5917748e-41
-210.72427 77.269958 0.10482821 4.5917748e-41
-210.56592 77.242561 0.10611526 4.5917748e-41
-209.26935 77.268547 0.17362294 1.793662e-43
-209.08716 77.290779 0.11377639 1.793662e-43
-208.95862 77.280174 0.10731091 1.793662e-43
-208.73801 77.295708 0.11904239 1.840045e-41
-208.54012 77.346596 0.10541928 4.5201685e-41
-208.32626 77.329582 0.10146333 4.5917748e-41
-208.13625 77.338814 0.095157765 4.5917748e-41
-207.95697 77.351532 0.10942447 4.5917748e-41
-207.69856 77.361526 0.090830125 4.5917748e-41
-207.51788 77.37915 0.11533924 4.5917748e-41
-207.28143 77.386345 0.096653759 4.5917748e-41
-207.13954 77.387146 0.079743564 4.5917748e-41
-186.63939 77.220398 0.048533231 1.1754944e-38
-186.51073 77.231514 0.030536773 1.1754944e-38
-186.31656 77.225586 0.062185109 1.1754944e-38
-186.13263 77.289307 0.12575358 1.1754944e-38
-185.89429 77.266891 0.16612202 1.1754944e-38
-185.69951 77.250633 0.16868359 1.1754944e-38
-185.49463 77.237534 0.18457663 1.1754944e-38
-170.4241 77.293617 0.013276245 1.793662e-43
-170.30289 77.298477 0.062481377 1.793662e-43
-170.09509 77.3125 0.10064767 1.793662e-43
-169.95233 77.332626 0.094302967 1.793662e-43
-157.66785 77.217239 0.023974862 1.1800861e-38
-157.5162 77.231834 0.019299863 1.1800861e-38
-157.32043 77.24968 0.027487516 1.1800861e-38
-157.12897 77.261047 0.017368995 1.1800861e-38
-156.93051 77.288498 0.052123919 1.1800861e-38
-156.73062 77.283775 0.09062916 1.1800861e-38
-155.2372 77.29892 0.072868809 1.1800861e-38
-155.10641 77.308411 0.04540227 1.1800861e-38
-154.87515 77.35891 0.037896615 1.1800861e-38
-154.65987 77.367188 0.059822887 1.1800861e-38
-154.52473 77.36721 0.075848617 1.1800861e-38
-154.39409 77.390091 0.11021662 1.1800861e-38
-152.84666 77.310036 0.063423865 1.1800861e-38
-152.72726 77.320389 0.033034965 1.1800861e-38
-147.0197 77.33168 0.0011214614 1.1800861e-38
-146.87935 77.34449 0.031266939 1.1800861e-38
-146.74323 77.366547 0.059931226 1.1800861e-38
-144.32901 77.345566 0.014923647 1.1800861e-38
-140.05328 77.266602 0.0053351671 1.1800861e-38
-139.94885 77.275726 0.027356604 1.1800861e-38
-139.79361 77.286674 0.10355242 1.1800861e-38
-137.53564 77.230034 0.024743332 1.1800861e-38
-137.38837 77.236351 0.1158767 1.1800861e-38
-133.32632 77.293816 0.017058723 1.1800861e-38
-133.15753 77.299637 0.021666721 1.1800861e-38
-132.96631 77.308083 0.047695458 1.1800861e-38
-130.63284 77.294815 0.025966667 1.1800861e-38
-130.54868 77.298203 0.026971221 1.1800861e-38
-130.36519 77.327202 0.067705393 1.1800861e-38
-301.44754 77.405609 0.18608487 1.1800861e-38
-301.32642 77.409851 0.18970501 1.1800861e-38
-298.86304 77.48938 0.099944174 1.1800861e-38
-296.45337 77.513817 0.11002004 1.1800861e-38
-296.31522 77.460594 0.073694915 1.1800861e-38
-292.85458 77.557144 0.14633465 1.1800861e-38
-292.7088 77.565346 0.11491409 1.1800861e-38
-290.25696 77.467232 0.081904173 1.1800861e-38
-290.18253 77.470947 0.076268747 1.1800861e-38
-287.85538 77.571922 0.16066131 1.1800861e-38
-287.69995 77.590492 0.089402281 1.1800861e-38
-286.52679 77.435593 0.18150799 1.1800861e-38
-284.10342 77.586617 0.077016823 1.1800861e-38
-283.94476 77.4496 0.10911783 1.1800861e-38
-281.63644 77.546356 0.093312956 1.1800861e-38
-281.47739 77.567596 0.038564172 1.1800861e-38
-281.39871 77.55378 0.15945001 1.1800861e-38
-279.2114 77.503807 0.15299539 1.1800861e-38
-279.07129 77.497009 0.12175803 1.1800861e-38
-278.95285 77.482307 0.13504528 1.1800861e-38
-276.63614 77.505463 0.10311159 1.1800861e-38
-276.52716 77.510353 0.046755891 1.1800861e-38
-274.21533 77.497093 0.11513186 1.1800861e-38
-274.05136 77.517029 0.05290575 1.1800861e-38
-273.89453 77.547371 0.017758705 1.1800861e-38
-272.07556 77.451317 0.10993219 1.1800861e-38
-271.93268 77.436218 0.095461771 1.1800861e-38
-271.78851 77.473473 0.18869689 1.1800861e-38
-269.62122 77.424805 0.11042349 1.1800861e-38
-269.457 77.447884 0.037031408 1.1800861e-38
-269.35208 77.455811 0.037228502 1.1800861e-38
-267.02185 77.456116 0.043368272 1.1800861e-38
-266.90991 77.413986 0.028519616 1.1800861e-38
-266.76221 77.486336 0.041983802 1.1800861e-38
-264.86578 77.520111 0.18188122 1.1800861e-38
-264.65503 77.534271 0.027139109 1.1800861e-38
-262.73871 77.406403 0.11099148 1.1800861e-38
-262.55963 77.409805 0.033229481 1.1800861e-38
-262.34821 77.421646 0.040825445 1.1800861e-38
-262.16367 77.458908 0.035456993 1.1800861e-38
-261.94818 77.433548 0.052881327 1.1800861e-38
-261.74207 77.444519 0.044562638 1.1800861e-38
-261.52478 77.449226 0.034125876 1.1800861e-38
-261.38763 77.470795 0.18213683 1.1800861e-38
-260.44916 77.51548 0.10686245 1.1800861e-38
-260.28183 77.495644 0.017323563 1.1800861e-38
-260.14136 77.5047 0.01233063 1.1800861e-38
-259.94684 77.521553 0.026517689 1.1800861e-38
-259.69394 77.558151 0.013675971 1.1800861e-38
-259.58728 77.583374 0.11211851 1.1800861e-38
-251.61481 77.454544 0.12308607 1.793662e-43
-251.50117 77.462807 0.031947829 1.793662e-43
-251.34882 77.479156 0.069699198 1.793662e-43
-244.27983 77.469398 0.10374849 1.793662e-43
-244.08813 77.476967 0.091815643 1.793662e-43
-243.9614 77.466599 0.11158516 1.793662e-43
-241.46645 77.470413 0.19633983 1.1754944e-38
-241.29254 77.498589 0.14552373 1.1754944e-38
-241.07484 77.426529 0.029540598 1.1754944e-38
-240.87634 77.493507 0.014846333 1.1754944e-38
-240.71628 77.516075 0.020142987 1.1754944e-38
-240.483 77.403709 0.040971629 1.1754944e-38
-240.29312 77.412872 0.043812208 1.1754944e-38
-240.09283 77.423721 0.036489025 1.1754944e-38
-239.89362 77.433395 0.029079659 1.1754944e-38
-239.72037 77.446594 0.04840735 1.1754944e-38
-239.51865 77.458923 0.041364171 1.1754944e-38
-239.31915 77.470154 0.034372479 1.1754944e-38
-239.1228 77.470779 0.024386309 1.1754944e-38
-238.94019 77.466522 0.012425787 1.1754944e-38
-209.27414 77.466881 0.18207529 1.793662e-43
-209.09227 77.466217 0.13726404 1.793662e-43
-208.9256 77.466507 0.1131814 1.793662e-43
-208.74362 77.506241 0.13025081 3.0352125e-42
-208.46735 77.421494 0.15245196 4.5917748e-41
-208.30501 77.413086 0.099853143 4.5917748e-41
-208.08276 77.430862 0.10101016 4.5917748e-41
-207.85217 77.450485 0.11785656 4.5917748e-41
-207.6373 77.459702 0.11185787 4.5917748e-41
-207.47313 77.470001 0.14218783 4.5917748e-41
-207.28145 77.466965 0.13093612 4.5917748e-41
-207.06561 77.466492 0.096874788 4.5917748e-41
-206.91954 77.450653 0.0838008 4.5917748e-41
-206.70949 77.46447 0.099181116 4.5917748e-41
-204.80356 77.552605 0.13855189 4.5917748e-41
-204.68993 77.548584 0.12629618 4.5917748e-41
-204.50034 77.557175 0.12217873 4.5917748e-41
-204.30197 77.564453 0.11272391 4.5917748e-41
-204.10466 77.573105 0.10337972 4.5917748e-41
-203.91209 77.58194 0.11046529 4.5917748e-41
-203.71378 77.590347 0.10109411 4.5917748e-41
-203.55569 77.597328 0.10724071 4.5917748e-41
-170.43411 77.458771 0.021334235 1.793662e-43
-170.29062 77.508072 0.06253168 1.793662e-43
-170.07008 77.522896 0.1025207 1.793662e-43
-169.91632 77.526825 0.11949724 1.793662e-43
-157.28682 77.419182 0.14890036 1.1800861e-38
-157.10045 77.431175 0.13834175 1.1800861e-38
-156.89157 77.445328 0.15082005 1.1800861e-38
-156.69229 77.471886 0.13971764 1.1800861e-38
-155.25078 77.408638 0.027669773 1.1800861e-38
-155.09581 77.422684 0.049943928 1.1800861e-38
-154.87189 77.438255 0.04195502 1.1800861e-38
-154.66727 77.448967 0.063485667 1.1800861e-38
-154.50063 77.439522 0.043677688 1.1800861e-38
-154.39333 77.459 0.11332476 1.1800861e-38
-153.42926 77.45179 0.014372171 1.1800861e-38
-153.32648 77.466629 0.011399821 1.1800861e-38
-153.12531 77.497604 0.02937833 1.1800861e-38
-152.88835 77.520538 0.012996134 1.1800861e-38
-152.70894 77.514206 0.024142314 1.1800861e-38
-147.03299 77.524353 0.010023728 1.1800861e-38
-146.91629 77.538559 0.022937017 1.1800861e-38
-146.75659 77.559296 0.068375789 1.1800861e-38
-144.34229 77.544907 0.023980208 1.1800861e-38
-140.03459 77.470482 0.033151537 1.1800861e-38
-139.93799 77.476318 0.040414885 1.1800861e-38
-137.60413 77.42688 0.012130529 1.1800861e-38
-137.50305 77.434906 0.030800596 1.1800861e-38
-135.22292 77.598869 0.0066640228 1.1800861e-38
-133.41193 77.489716 0.011664212 1.1800861e-38
-133.28972 77.493332 0.023012027 1.1800861e-38
-133.1702 77.497871 0.030091077 1.1800861e-38
-132.97812 77.507545 0.056444913 1.1800861e-38
-130.8082 77.446266 0.0038846582 1.1800861e-38
-130.64078 77.450912 0.032087788 1.1800861e-38
-130.5619 77.456543 0.03349622 1.1800861e-38
-130.38071 77.472099 0.074234039 1.1800861e-38
-296.45898 77.606445 0.082035117 1.1800861e-38
-296.29977 77.60891 0.094657958 1.1800861e-38
-292.86115 77.721268 0.14338046 1.1800861e-38
-292.71674 77.724258 0.12173147 1.1800861e-38
-290.26154 77.668457 0.089999259 1.1800861e-38
-290.18506 77.670876 0.070265472 1.1800861e-38
-287.83478 77.775314 0.13774291 1.1800861e-38
-287.70459 77.787971 0.10539561 1.1800861e-38
-286.5054 77.647011 0.18920279 1.1800861e-38
-284.12238 77.752731 0.084538594 1.1800861e-38
-283.95544 77.649551 0.11757074 1.1800861e-38
-281.64404 77.749001 0.094197333 1.1800861e-38
-281.48532 77.761002 0.024870617 1.1800861e-38
-281.3869 77.691635 0.19702634 1.1800861e-38
-279.22363 77.701851 0.16187668 1.1800861e-38
-279.12628 77.712212 0.14668225 1.1800861e-38
-278.96808 77.711639 0.18198147 1.1800861e-38
-276.64398 77.67556 0.11059861 1.1800861e-38
-276.54086 77.653069 0.053990651 1.1800861e-38
-274.23022 77.693878 0.12408024 1.1800861e-38
-274.06668 77.718338 0.065973096 1.1800861e-38
-273.92004 77.690643 0.034067404 1.1800861e-38
-272.08713 77.628517 0.11799505 1.1800861e-38
-271.92349 77.665642 0.12440427 1.1800861e-38
-271.79733 77.67952 0.19808993 1.1800861e-38
-269.62546 77.625671 0.13059875 1.1800861e-38
-269.49619 77.648705 0.020126378 1.1800861e-38
-269.3559 77.655258 0.055316247 1.1800861e-38
-267.04645 77.620255 0.023637859 1.1800861e-38
-266.89966 77.617119 0.023041382 1.1800861e-38
-266.78104 77.622749 0.0042061508 1.1800861e-38
-264.87625 77.705002 0.17682809 1.1800861e-38
-264.71414 77.686256 0.0452317 1.1800861e-38
-262.24924 77.664513 0.041802991 1.1800861e-38
-262.17004 77.664551 0.090104371 1.1800861e-38
-259.84937 77.779785 0.095060736 1.1800861e-38
-259.68625 77.790619 0.027055211 1.1800861e-38
-259.58136 77.777725 0.15083376 1.1800861e-38
-257.6228 77.694901 0.11962271 1.1800861e-38
-257.44702 77.71405 0.021607572 1.1800861e-38
-257.30804 77.716225 0.015672337 1.1800861e-38
-257.10471 77.736099 0.017610783 1.1800861e-38
-256.90503 77.740425 0.029313743 1.1800861e-38
-256.73444 77.750114 0.02848351 1.1800861e-38
-255.64395 77.785019 0.037618876 1.1800861e-38
-255.49927 77.784714 0.022178188 1.1800861e-38
-255.30887 77.791481 0.036023706 1.1800861e-38
-255.11758 77.798088 0.058089629 1.1800861e-38
-251.61475 77.65361 0.13163367 1.793662e-43
-251.48511 77.685509 0.019445978 1.793662e-43
-251.30995 77.723923 0.091203988 1.793662e-43
-244.26178 77.660599 0.11255212 1.793662e-43
-244.09966 77.676079 0.10123936 1.793662e-43
-243.97882 77.65226 0.12007526 1.793662e-43
-209.28291 77.667976 0.19082654 1.793662e-43
-209.10118 77.664795 0.14576396 1.793662e-43
-208.8974 77.698051 0.11440689 1.793662e-43
-208.74669 77.691277 0.13785698 1.793662e-43
-204.70352 77.629402 0.12819311 4.5917748e-41
-204.50266 77.640823 0.12602994 4.5917748e-41
-204.30112 77.648941 0.11645755 4.5917748e-41
-204.10342 77.654083 0.10821392 4.5917748e-41
-203.89549 77.663376 0.12449026 4.5917748e-41
-203.69408 77.670303 0.11486405 4.5917748e-41
-203.49127 77.652077 0.095799305 4.5917748e-41
-203.33813 77.65551 0.11506212 4.5917748e-41
-203.13605 77.663818 0.10559937 4.5917748e-41
-202.94373 77.670784 0.096170098 4.5917748e-41
-202.79141 77.691376 0.10981079 4.5917748e-41
-200.84882 77.757065 0.14614975 4.5917748e-41
-200.66977 77.757111 0.14052965 4.5917748e-41
-200.4722 77.762596 0.13077645 4.5917748e-41
-200.27135 77.766937 0.12080452 4.5917748e-41
-200.07382 77.774101 0.11112764 4.5917748e-41
-199.91966 77.783646 0.13137379 4.5917748e-41
-199.70087 77.788696 0.11705725 4.5917748e-41
-199.53125 77.792839 0.10200804 4.5917748e-41
-170.29907 77.727905 0.049677655 1.793662e-43
-170.13075 77.701385 0.05988463 1.793662e-43
-169.92867 77.723221 0.12875277 1.793662e-43
-147.04169 77.722412 0.018916562 1.1800861e-38
-146.922 77.744064 0.031917498 1.1800861e-38
