# .PCD v0.7 - Point Cloud Data file format
VERSION 0.7
FIELDS x y z rgb
SIZE 4 4 4 4
TYPE F F F F
COUNT 1 1 1 1
WIDTH 1015
HEIGHT 1
VIEWPOINT 0 0 0 1 0 0 0
POINTS 1015
DATA ascii
-286.34195 74.856445 -0.051719882 1.793662e-43
-252.55472 74.803032 -0.040307663 4.5917748e-41
-252.04189 74.806198 -0.028771859 4.5917748e-41
-251.87772 74.841705 -0.16940838 1.793662e-43
-251.64682 74.848206 -0.10793516 2.3048557e-41
-251.32526 74.886185 -0.089541025 5.3529601e-43
-251.11827 74.886009 -0.10944983 1.793662e-43
-250.99149 74.850044 -0.030002903 1.793662e-43
-244.6825 74.870842 -0.17962234 1.793662e-43
-244.42418 74.879959 -0.19001061 1.793662e-43
-244.31917 74.878548 -0.19445445 1.793662e-43
-243.84105 74.918785 -0.063730434 1.793662e-43
-243.61032 74.857613 -0.071710214 1.793662e-43
-209.23511 74.824066 -0.16283548 1.793662e-43
-209.07114 74.840157 -0.1450392 1.793662e-43
-208.91855 74.856888 -0.15311356 1.793662e-43
-199.71336 74.813911 -0.13936591 1.1800861e-38
-199.48579 74.825623 -0.13386662 1.1800861e-38
-199.28812 74.832932 -0.1435703 1.1800861e-38
-199.08064 74.837486 -0.12065991 1.1800861e-38
-198.95155 74.858437 -0.039109379 1.1800861e-38
-197.85558 74.858093 -0.14489666 1.1800861e-38
-197.6328 74.867821 -0.13981311 1.1800861e-38
-197.44693 74.893555 -0.13440159 1.1800861e-38
-197.24966 74.925278 -0.13441412 1.1800861e-38
-197.04314 74.897087 -0.16453326 1.1800861e-38
-196.89893 74.949142 -0.09991952 1.1800861e-38
-196.69794 74.957542 -0.10956742 1.1800861e-38
-196.53036 74.966362 -0.12197579 1.1800861e-38
-194.68658 74.981651 -0.17113674 1.1800861e-38
-194.54625 74.983551 -0.03502053 1.1800861e-38
-191.65341 74.968674 -0.14706522 1.1800861e-38
-191.55188 74.971924 -0.14395642 1.1800861e-38
-189.08192 74.936714 -0.12976594 1.1800861e-38
-188.9794 74.907333 -0.068566643 1.1800861e-38
-186.52864 74.873184 -0.17673846 1.1800861e-38
-184.67366 74.845024 -0.13316472 1.1800861e-38
-184.56084 74.90802 -0.10359104 1.1800861e-38
-182.12938 74.888794 -0.1477681 1.1800861e-38
-179.65193 74.982147 -0.11992098 1.1800861e-38
-179.55524 74.915138 -0.12391611 1.1800861e-38
-177.09686 74.856476 -0.1523831 1.1800861e-38
-176.93774 74.891296 -0.043739922 1.1800861e-38
-174.62741 74.913406 -0.16513759 1.1800861e-38
-174.51141 74.903015 -0.10627688 1.1800861e-38
-174.37312 74.876442 -0.046180531 1.1800861e-38
-172.07306 74.821747 -0.11487133 1.1800861e-38
-171.98338 74.841003 -0.15629326 1.1800861e-38
-169.65723 74.95829 -0.17945911 1.1800861e-38
-169.53418 74.972107 -0.11440938 1.1800861e-38
-169.35603 74.973213 -0.042506024 1.1800861e-38
-167.02856 74.950752 -0.13373733 1.1800861e-38
-166.93071 74.959236 -0.12046579 1.1800861e-38
-164.52831 74.941711 -0.17267042 1.1800861e-38
-161.92816 74.980606 -0.14338188 1.1800861e-38
-161.73952 74.990669 -0.056698531 1.1800861e-38
-120.66407 74.924706 -0.010876562 1.1754944e-38
-120.5111 74.870201 -0.029317804 1.1754944e-38
-120.38229 74.944206 -0.03858082 1.1754944e-38
-117.83354 74.9478 -0.0090133846 1.1800861e-38
-117.77245 74.924728 -0.011927238 1.1800861e-38
-59.262505 74.942566 -0.066577554 1.1754944e-38
-59.167007 74.89888 -0.030494554 1.1754944e-38
-58.889832 74.860817 -0.0851501 1.1754944e-38
-58.719551 74.898743 -0.07308583 1.1754944e-38
-57.423809 74.889565 -0.029819336 4.5917748e-41
-306.85791 75.015068 -0.00061386079 1.1800861e-38
-306.74966 75.046165 -0.0021374598 1.1800861e-38
-306.11893 75.002563 -0.00047428906 1.1800861e-38
-305.56546 75.032013 -0.013362803 1.1800861e-38
-304.82574 75.036301 -0.014450103 1.1800861e-38
-304.62994 75.046295 -0.019511096 1.1800861e-38
-304.51529 75.062759 -0.015565579 1.1800861e-38
-304.36005 75.052979 -0.0083567724 1.1800861e-38
-304.17035 75.085358 -0.013116729 1.1800861e-38
-301.40271 75.005295 -0.014536068 1.1800861e-38
-301.26291 75.011902 -0.017913945 1.1800861e-38
-299.36462 75.148682 -0.012873709 1.1800861e-38
-299.10257 75.148689 -0.013762094 1.1800861e-38
-298.85797 75.178543 -0.0060523748 1.1800861e-38
-298.66077 75.187256 -0.011560887 1.1800861e-38
-298.46103 75.193939 -0.017230995 1.1800861e-38
-298.15442 75.191048 -0.026497513 1.1800861e-38
-287.44617 75.182564 -0.08400131 1.793662e-43
-287.35623 75.103241 -0.068900287 1.793662e-43
-287.06018 75.052017 -0.035971571 1.793662e-43
-286.85016 75.104286 -0.013344202 1.793662e-43
-286.67313 75.071579 -0.023996308 1.793662e-43
-286.51224 75.04715 -0.036437556 1.793662e-43
-286.36197 75.050964 -0.04213766 1.793662e-43
-251.82401 75.063171 -0.16139896 1.793662e-43
-251.67169 75.069901 -0.16760814 1.793662e-43
-251.31459 75.052383 -0.088651687 1.793662e-43
-251.11406 75.081047 -0.10963282 1.793662e-43
-244.68777 75.070877 -0.17077996 1.793662e-43
-244.44501 75.073364 -0.18080527 5.3529601e-43
-244.22932 75.16729 -0.18575957 4.5917748e-41
-244.03157 75.172638 -0.19378254 4.5917748e-41
-243.87999 75.130295 -0.045713484 1.793662e-43
-243.68468 75.101166 -0.11014762 2.3048557e-41
-243.46336 75.195885 -0.17056647 4.5917748e-41
-209.23842 75.025131 -0.15411101 1.793662e-43
-209.08234 75.039124 -0.13622023 1.793662e-43
-208.92253 75.053726 -0.14467174 1.793662e-43
-196.43683 75.047203 -0.0022389591 1.1800861e-38
-195.32777 75.052917 -0.14086474 1.1800861e-38
-195.14137 75.055756 -0.14538544 1.1800861e-38
-194.94084 75.059029 -0.15524612 1.1800861e-38
-194.70491 75.093552 -0.16242589 1.1800861e-38
-194.55322 75.117355 -0.02870062 1.1800861e-38
-191.65169 75.172897 -0.13771534 1.1800861e-38
-191.50912 75.184509 -0.1362908 1.1800861e-38
-189.09213 75.131973 -0.16014242 1.1800861e-38
-188.97729 75.108719 -0.0579734 1.1800861e-38
-186.53127 75.073891 -0.15818593 1.1800861e-38
-184.67752 75.047302 -0.12709802 1.1800861e-38
-184.5733 75.110367 -0.10635757 1.1800861e-38
-182.23233 75.001274 -0.17864211 1.1800861e-38
-182.12518 75.089149 -0.13796689 1.1800861e-38
-179.67944 75.094818 -0.15309535 1.1800861e-38
-179.54059 75.164032 -0.071469024 1.1800861e-38
-177.10234 75.056465 -0.14605582 1.1800861e-38
-176.96152 75.002861 -0.070966847 1.1800861e-38
-174.63052 75.113274 -0.15564886 1.1800861e-38
-174.53452 75.115875 -0.14394483 1.1800861e-38
-174.38379 75.075798 -0.036728695 1.1800861e-38
-172.07965 75.01918 -0.1060155 1.1800861e-38
-171.98605 75.03952 -0.14724222 1.1800861e-38
-169.65503 75.157539 -0.17964597 1.1800861e-38
-169.53886 75.170578 -0.10520245 1.1800861e-38
-169.37006 75.166809 -0.033176839 1.1800861e-38
-167.0365 75.149796 -0.1245505 1.1800861e-38
-166.93576 75.159683 -0.1113371 1.1800861e-38
-164.53668 75.141808 -0.16334309 1.1800861e-38
-162.00768 75.129036 -0.08293546 1.1800861e-38
-161.92159 75.141151 -0.1343881 1.1800861e-38
-161.75198 75.14547 -0.049756303 1.1800861e-38
-159.52301 75.174568 -0.13596226 1.1800861e-38
-159.33229 75.181122 -0.029914528 1.1800861e-38
-120.65853 75.153114 -0.0040838909 1.1754944e-38
-120.53355 75.09951 -0.027710307 1.1754944e-38
-120.36695 75.066437 -0.023336869 1.1754944e-38
-117.84251 75.150604 -0.010388034 1.1800861e-38
-117.77882 75.123978 -0.01318986 1.1800861e-38
-59.315216 75.110893 -0.074264161 1.1754944e-38
-59.117306 75.074715 -0.04228593 1.1754944e-38
-58.803932 75.094475 -0.048934124 1.1754944e-38
-58.726334 75.158607 -0.062038891 1.1754944e-38
-57.425282 75.088356 -0.031443853 4.5917748e-41
-304.1944 75.354408 -0.00068017095 1.1800861e-38
-299.3717 75.336403 -0.0038708672 1.1800861e-38
-298.72754 75.367516 -0.0018681213 1.1800861e-38
-298.26804 75.202621 -0.022614919 1.1800861e-38
-297.42807 75.222549 -0.0034609362 1.1800861e-38
-297.30869 75.234116 -0.0064124689 1.1800861e-38
-297.11829 75.245171 -0.011467285 1.1800861e-38
-296.85562 75.302162 -0.014519315 1.1800861e-38
-296.76135 75.325134 -0.010856908 1.1800861e-38
-296.56348 75.333679 -0.017237913 1.1800861e-38
-296.36267 75.344101 -0.023639187 1.1800861e-38
-296.1474 75.312851 -0.019809362 1.1800861e-38
-295.09552 75.371353 -0.026998661 1.1800861e-38
-294.89005 75.381638 -0.042160332 1.1800861e-38
-294.6156 75.386688 -0.025190726 1.1800861e-38
-294.44913 75.394318 -0.03181567 1.1800861e-38
-287.42554 75.387466 -0.075867184 1.793662e-43
-287.31992 75.213455 -0.04420086 1.793662e-43
-287.07434 75.293762 -0.026148457 1.793662e-43
-286.86456 75.303619 -0.0055877976 1.793662e-43
-286.68671 75.284119 -0.014727065 1.793662e-43
-286.52286 75.246643 -0.026997544 1.793662e-43
-286.37442 75.256226 -0.032366104 1.793662e-43
-251.89011 75.268791 -0.17340049 1.793662e-43
-251.67836 75.269562 -0.15802832 1.793662e-43
-251.27107 75.265282 -0.098045774 1.793662e-43
-251.09158 75.274208 -0.097815394 1.793662e-43
-244.69424 75.270569 -0.16190347 1.793662e-43
-244.4577 75.276611 -0.17151542 2.6792827e-42
-244.23549 75.241028 -0.18232405 4.5917748e-41
-244.03619 75.248062 -0.19033863 4.5917748e-41
-243.92493 75.276939 -0.087142549 1.5185871e-41
-243.66071 75.272942 -0.15883507 4.5917748e-41
-243.46634 75.280739 -0.16661695 4.5917748e-41
-243.26514 75.245697 -0.17661557 4.5917748e-41
-243.06544 75.253082 -0.18463936 4.5917748e-41
-242.86575 75.260475 -0.19266304 4.5917748e-41
-242.66945 75.307816 -0.19874333 4.5917748e-41
-240.15778 75.362846 -0.16162333 4.5917748e-41
-239.96548 75.367165 -0.16960029 4.5917748e-41
-239.7683 75.376465 -0.17757361 4.5917748e-41
-239.55858 75.383492 -0.18617585 4.5917748e-41
-239.36885 75.390556 -0.19392711 4.5917748e-41
-209.24841 75.225037 -0.1451284 1.793662e-43
-209.09433 75.23848 -0.12734653 1.793662e-43
-208.92888 75.250679 -0.13613935 1.793662e-43
-191.64624 75.290977 -0.13253298 1.1800861e-38
-191.50797 75.293243 -0.13129932 1.1800861e-38
-191.29997 75.254082 -0.16305737 1.1800861e-38
-191.09959 75.2556 -0.17288904 1.1800861e-38
-190.92508 75.260712 -0.14380512 1.1800861e-38
-190.79532 75.24189 -0.0012671053 1.1800861e-38
-189.73059 75.319199 -0.13490115 1.1800861e-38
-189.50674 75.303886 -0.13593601 1.1800861e-38
-189.27478 75.297432 -0.15345579 1.1800861e-38
-189.11139 75.328583 -0.14463997 1.1800861e-38
-188.92273 75.339668 -0.1504131 1.1800861e-38
-188.74759 75.348175 -0.11098722 1.1800861e-38
-188.50008 75.34964 -0.13752127 1.1800861e-38
-188.35553 75.357407 -0.088491701 1.1800861e-38
-187.21535 75.385208 -0.18557346 1.1800861e-38
-187.11078 75.371902 -0.16424605 1.1800861e-38
-186.84645 75.364296 -0.15044917 1.1800861e-38
-186.52937 75.274391 -0.14614439 1.1800861e-38
-184.67499 75.246162 -0.1170035 1.1800861e-38
-184.57162 75.306152 -0.096581936 1.1800861e-38
-182.12863 75.28978 -0.13127674 1.1800861e-38
-179.65149 75.264259 -0.15968081 1.1800861e-38
-179.55573 75.283279 -0.095684364 1.1800861e-38
-177.10484 75.256477 -0.13610902 1.1800861e-38
-176.96751 75.204529 -0.060918011 1.1800861e-38
-174.63431 75.312065 -0.14617474 1.1800861e-38
-174.53886 75.315414 -0.13442065 1.1800861e-38
-174.39664 75.274834 -0.027192101 1.1800861e-38
-172.12219 75.228836 -0.14726371 1.1800861e-38
-171.99167 75.238182 -0.13805144 1.1800861e-38
-169.61378 75.390915 -0.17194392 1.1800861e-38
-169.50967 75.336594 -0.12924482 1.1800861e-38
-169.38075 75.366364 -0.023748368 1.1800861e-38
-167.07118 75.364265 -0.16903454 1.1800861e-38
-166.95093 75.35759 -0.10613553 1.1800861e-38
-164.60164 75.336334 -0.16850269 1.1800861e-38
-164.51201 75.333717 -0.13952051 1.1800861e-38
-162.0231 75.334381 -0.13523403 1.1800861e-38
-161.9285 75.352722 -0.16265231 1.1800861e-38
-161.7686 75.344574 -0.040796667 1.1800861e-38
-159.63795 75.327362 -0.19393127 1.1800861e-38
-159.53217 75.340164 -0.16222472 1.1800861e-38
-159.34375 75.344788 -0.023302168 1.1800861e-38
-157.08739 75.3731 -0.14953068 1.1800861e-38
-156.935 75.383408 -0.10513406 1.1800861e-38
-120.66641 75.353798 -0.0050516534 1.1754944e-38
-120.50262 75.239288 -0.0216271 1.1754944e-38
-120.37218 75.249634 -0.054491907 1.1754944e-38
-117.85017 75.347427 -0.011730754 1.1800861e-38
-117.7847 75.323242 -0.014456064 1.1800861e-38
-59.345413 75.270531 -0.14448643 1.1754944e-38
-59.091125 75.331482 -0.04084561 1.1754944e-38
-58.83754 75.29393 -0.12668119 1.1754944e-38
-58.735115 75.331039 -0.057929702 1.1754944e-38
-57.431805 75.289261 -0.033129722 4.5917748e-41
-296.89624 75.434235 -0.0091207698 1.1800861e-38
-296.12701 75.437256 -0.015156701 1.1800861e-38
-295.07513 75.449013 -0.024365406 1.1800861e-38
-294.88681 75.433067 -0.039971914 1.1800861e-38
-294.61853 75.466545 -0.021516107 1.1800861e-38
-294.43701 75.471909 -0.028870307 1.1800861e-38
-293.47772 75.571381 -0.064572588 1.1800861e-38
-293.28241 75.583679 -0.072194807 1.1800861e-38
-293.07764 75.539078 -0.024312833 1.1800861e-38
-292.85406 75.554726 -0.031213708 1.1800861e-38
-292.68741 75.564835 -0.020426063 1.1800861e-38
-292.47711 75.590012 -0.041170817 1.1800861e-38
-292.28125 75.589691 -0.017001368 1.1800861e-38
-292.08157 75.597687 -0.024980649 1.1800861e-38
-287.43079 75.566833 -0.067853391 1.793662e-43
-287.32367 75.483421 -0.033254106 1.793662e-43
-287.15759 75.499405 -0.038669895 1.793662e-43
-286.64673 75.432121 -0.013766162 1.793662e-43
-286.53351 75.446136 -0.017557681 1.793662e-43
-286.37985 75.456078 -0.023113787 1.793662e-43
-251.86592 75.469444 -0.17305231 1.793662e-43
-251.67706 75.529869 -0.17829092 1.793662e-43
-251.40442 75.468567 -0.094031557 1.793662e-43
-251.22845 75.46257 -0.086592861 1.793662e-43
-251.10661 75.473816 -0.08889097 1.793662e-43
-244.71902 75.481308 -0.176507 1.793662e-43
-244.4529 75.481522 -0.16288501 1.793662e-43
-244.00775 75.466423 -0.01624988 1.793662e-43
-240.16548 75.451836 -0.15751357 4.5917748e-41
-239.97351 75.458488 -0.16537774 4.5917748e-41
-239.77283 75.461792 -0.17375465 4.5917748e-41
-239.5726 75.470833 -0.18186799 4.5917748e-41
-239.37299 75.480377 -0.18993403 4.5917748e-41
-239.17497 75.487679 -0.19802712 4.5917748e-41
-238.89586 75.514328 -0.1604194 4.5917748e-41
-238.54446 75.523026 -0.17494532 4.5917748e-41
-236.88942 75.536469 -0.19636913 4.5917748e-41
-236.44926 75.578186 -0.14806387 4.5917748e-41
-236.25287 75.586411 -0.15502243 4.5917748e-41
-236.06554 75.595055 -0.16162814 4.5917748e-41
-209.25839 75.424835 -0.13614728 1.793662e-43
-209.09496 75.439041 -0.12082025 1.793662e-43
-208.92856 75.453072 -0.12592073 1.793662e-43
-189.05806 75.432243 -0.084454358 1.1800861e-38
-188.87143 75.43158 -0.13274202 1.1800861e-38
-188.69409 75.43528 -0.10929187 1.1800861e-38
-188.49648 75.436058 -0.133426 1.1800861e-38
-188.35178 75.436295 -0.084531009 1.1800861e-38
-187.22525 75.459549 -0.11286379 1.1800861e-38
-187.11407 75.464142 -0.1456643 1.1800861e-38
-186.89108 75.467575 -0.15025118 1.1800861e-38
-186.67639 75.486313 -0.11739925 1.1800861e-38
-186.4903 75.479691 -0.13021365 1.1800861e-38
-184.68727 75.534592 -0.15375477 1.1800861e-38
-184.55222 75.519432 -0.086849473 1.1800861e-38
-182.10976 75.488724 -0.11715915 1.1800861e-38
-179.68237 75.502663 -0.1462747 1.1800861e-38
-179.57626 75.447136 -0.13413706 1.1800861e-38
-177.1076 75.456406 -0.12615274 1.1800861e-38
-176.97681 75.403374 -0.050832734 1.1800861e-38
-174.63554 75.511276 -0.13681924 1.1800861e-38
-174.53816 75.515472 -0.12511039 1.1800861e-38
-172.1185 75.484833 -0.16111733 1.1800861e-38
-171.99879 75.439285 -0.12868227 1.1800861e-38
-169.61662 75.590294 -0.16352166 1.1800861e-38
-169.52109 75.500839 -0.14169367 1.1800861e-38
-169.39644 75.565514 -0.014088854 1.1800861e-38
-167.07677 75.562218 -0.16035815 1.1800861e-38
-166.96338 75.557175 -0.096650839 1.1800861e-38
-164.60571 75.53257 -0.15957145 1.1800861e-38
-164.5211 75.542862 -0.12985048 1.1800861e-38
-162.02333 75.5345 -0.14734119 1.1800861e-38
-161.91837 75.552017 -0.14602357 1.1800861e-38
-161.78522 75.543678 -0.031836957 1.1800861e-38
-159.62587 75.524803 -0.16581374 1.1800861e-38
-159.51865 75.541969 -0.14720254 1.1800861e-38
-159.34798 75.543686 -0.035655059 1.1800861e-38
-157.09245 75.529854 -0.14354506 1.1800861e-38
-156.94211 75.54467 -0.098601416 1.1800861e-38
-155.29706 75.505493 -0.11778669 1.1800861e-38
-155.15784 75.50721 -0.077688992 1.1800861e-38
-121.09608 75.482338 -0.017736271 1.1754944e-38
-120.69522 75.487892 -0.01338171 1.1754944e-38
-120.50971 75.480736 -0.017767129 1.1754944e-38
-120.3892 75.536255 -0.052898817 1.1754944e-38
-120.09158 75.536789 -0.017366372 1.1754944e-38
-117.8566 75.546875 -0.013088058 1.1800861e-38
-117.79129 75.525314 -0.015740378 1.1800861e-38
-59.43679 75.456398 -0.11079195 1.1754944e-38
-59.276745 75.466553 -0.10929146 1.1754944e-38
-59.115425 75.509018 -0.1061227 1.1754944e-38
-58.8423 75.493103 -0.11068057 1.1754944e-38
-58.7384 75.497131 -0.048429772 1.1754944e-38
-57.442577 75.417625 -0.034264587 4.5917748e-41
-5.6834846 75.554268 -0.10132509 4.5917748e-41
-296.18857 75.648308 -0.016484007 1.1800861e-38
-293.26276 75.660225 -0.069612041 1.1800861e-38
-292.71173 75.629509 -0.0043298006 1.1800861e-38
-292.34518 75.610977 -0.078343868 1.1800861e-38
-291.91653 75.605133 -0.031538211 1.1800861e-38
-291.20935 75.668655 -0.058205239 1.1800861e-38
-291.07684 75.703506 -0.062163018 1.1800861e-38
-290.94586 75.708183 -0.067422584 1.1800861e-38
-290.64392 75.726036 -0.030111786 1.1800861e-38
-290.52045 75.709915 -0.018857844 1.1800861e-38
-290.35629 75.713333 -0.016956702 1.1800861e-38
-290.12332 75.718315 -0.02988353 1.1800861e-38
-289.93643 75.75338 -0.042548332 1.1800861e-38
-289.75891 75.740631 -0.043085046 1.1800861e-38
-289.47028 75.756104 -0.033046499 1.1800861e-38
-289.04007 75.771172 -0.049148396 1.1800861e-38
-288.92853 75.774597 -0.053342968 1.1800861e-38
-288.73538 75.779808 -0.060636654 1.1800861e-38
-288.59561 75.786057 -0.065812141 1.1800861e-38
-287.39392 75.75499 -0.061072357 1.793662e-43
-286.65201 75.619194 -0.005097352 1.793662e-43
-286.54675 75.719437 -0.0046762936 1.793662e-43
-286.3924 75.647057 -0.013983689 1.793662e-43
-252.06966 75.666832 -0.15493713 1.793662e-43
-251.87924 75.663315 -0.15523192 1.793662e-43
-251.4158 75.66613 -0.085169874 1.793662e-43
-251.24397 75.660667 -0.077718481 1.793662e-43
-251.12396 75.700409 -0.078765757 1.793662e-43
-244.7084 75.704124 -0.17986722 1.793662e-43
-244.45052 75.679184 -0.15446502 1.793662e-43
-244.3476 75.757217 -0.1553977 1.793662e-43
-236.89717 75.614456 -0.19287135 4.5917748e-41
-236.71762 75.642067 -0.16727775 4.5917748e-41
-236.47409 75.661804 -0.14388846 4.5917748e-41
-236.27426 75.668564 -0.15103091 4.5917748e-41
-236.07472 75.680305 -0.15796866 4.5917748e-41
-235.8728 75.644913 -0.16682981 4.5917748e-41
-235.67001 75.654694 -0.17396531 4.5917748e-41
-235.48082 75.669426 -0.16796696 4.5917748e-41
-235.321 75.677544 -0.17364384 4.5917748e-41
-235.10133 75.698944 -0.15643165 4.5917748e-41
-234.8981 75.707886 -0.16383384 4.5917748e-41
-234.75253 75.715836 -0.16907701 4.5917748e-41
-232.86829 75.79686 -0.16413902 4.5917748e-41
-232.76067 75.794449 -0.16862217 4.5917748e-41
-209.26874 75.62381 -0.1271961 1.793662e-43
-209.09973 75.637436 -0.11596827 1.793662e-43
-208.93765 75.651825 -0.11719444 1.793662e-43
-184.66803 75.649918 -0.074325748 1.1800861e-38
-184.4743 75.631264 -0.10182972 1.1800861e-38
-184.27612 75.626724 -0.11216016 1.1800861e-38
-184.06641 75.642822 -0.12748672 1.1800861e-38
-183.92238 75.647057 -0.13157965 1.1800861e-38
-182.83397 75.709198 -0.11143615 1.1800861e-38
-182.69519 75.691727 -0.16662303 1.1800861e-38
-182.44427 75.699219 -0.16579558 1.1800861e-38
-182.31624 75.709412 -0.1130467 1.1800861e-38
-182.12749 75.70536 -0.11971875 1.1800861e-38
-181.92427 75.724098 -0.13278718 1.1800861e-38
-181.72266 75.731476 -0.14294995 1.1800861e-38
-181.48973 75.725296 -0.16005786 1.1800861e-38
-181.3783 75.77298 -0.15610102 1.1800861e-38
-179.63419 75.771103 -0.035668943 1.1800861e-38
-179.56938 75.646713 -0.12472507 1.1800861e-38
-177.15509 75.644913 -0.15809771 1.1800861e-38
-176.98135 75.603142 -0.040950686 1.1800861e-38
-174.63254 75.707199 -0.11553429 1.1800861e-38
-174.53226 75.714867 -0.11396613 1.1800861e-38
-172.07034 75.660156 -0.14012732 1.1800861e-38
-171.96114 75.750931 -0.18469942 1.1800861e-38
-169.61064 75.781982 -0.14095491 1.1800861e-38
-169.50885 75.693756 -0.12598209 1.1800861e-38
-167.07935 75.760452 -0.14726017 1.1800861e-38
-166.96033 75.758698 -0.087911598 1.1800861e-38
-164.61816 75.733856 -0.16024205 1.1800861e-38
-164.51797 75.743889 -0.11727624 1.1800861e-38
-162.0305 75.733154 -0.13866469 1.1800861e-38
-161.92557 75.748909 -0.13737945 1.1800861e-38
-161.79686 75.743217 -0.023118421 1.1800861e-38
-159.63141 75.717545 -0.15784316 1.1800861e-38
-159.52448 75.741501 -0.13913438 1.1800861e-38
-159.37379 75.718025 -0.066981547 1.1800861e-38
-157.09254 75.703575 -0.12944107 1.1800861e-38
-156.95178 75.769135 -0.12338008 1.1800861e-38
-155.30319 75.664894 -0.11105061 1.1800861e-38
-155.1248 75.713593 -0.07068257 1.1800861e-38
-121.06193 75.651253 -0.029921455 1.1754944e-38
-120.86559 75.734848 -0.022231882 1.1754944e-38
-120.7142 75.663147 -0.01425958 1.1754944e-38
-120.47214 75.684532 -0.011946603 1.1754944e-38
-120.22464 75.708809 -0.018266905 1.1754944e-38
-120.11604 75.692825 -0.012044001 1.1754944e-38
-117.87167 75.730713 -0.014277561 1.1800861e-38
-117.79785 75.723495 -0.016997265 1.1800861e-38
-59.457432 75.642136 -0.093184277 1.1754944e-38
-59.275078 75.662796 -0.093811184 1.1754944e-38
-59.094101 75.682251 -0.093977988 1.1754944e-38
-58.872631 75.691856 -0.094630092 1.1754944e-38
-58.759552 75.669266 -0.039205138 1.1754944e-38
-5.6917419 75.659096 -0.1173419 4.5917748e-41
-296.19461 75.870354 -0.0067208484 1.1800861e-38
-290.10211 75.833344 -0.025960587 1.1800861e-38
-289.97681 75.858063 -0.0091861039 1.1800861e-38
-289.73715 75.814995 -0.020264216 1.1800861e-38
-289.48602 75.818039 -0.029897831 1.1800861e-38
-288.9101 75.850899 -0.050935544 1.1800861e-38
-288.73999 75.859917 -0.057176411 1.1800861e-38
-288.59906 75.865913 -0.062408485 1.1800861e-38
-287.77029 75.851273 -0.002242513 1.1800861e-38
-287.51212 75.931862 -0.0084279142 1.1800861e-38
-286.36301 75.871437 -0.0049832165 6.8224472e-39
-286.15918 75.960617 -0.0089151375 1.1800861e-38
-285.88031 75.948189 -0.020377744 1.1800861e-38
-285.08044 75.969398 -0.050680634 1.1800861e-38
-284.633 75.893936 -0.0012131482 1.1800861e-38
-284.52832 75.950684 -0.014951333 1.1800861e-38
-256.42288 75.995644 -0.10971912 1.1754944e-38
-256.22885 75.987534 -0.11798132 1.1754944e-38
-256.08612 75.989143 -0.12371585 1.1754944e-38
-255.64503 75.904297 -0.057167567 1.1754944e-38
-255.55858 75.919724 -0.047895439 1.1754944e-38
-252.07593 75.862541 -0.14537528 1.793662e-43
-251.89348 75.866165 -0.14503607 1.793662e-43
-251.62202 75.852081 -0.072204702 1.793662e-43
-251.45525 75.846481 -0.064919546 1.793662e-43
-251.32387 75.848755 -0.067821324 1.793662e-43
-251.12241 75.804314 -0.086099349 1.793662e-43
-244.9174 75.872215 -0.15981071 1.793662e-43
-244.6562 75.871628 -0.13758597 1.793662e-43
-244.52798 75.90535 -0.14148434 1.793662e-43
-243.9015 75.948097 -0.051293761 1.793662e-43
-232.8737 75.856186 -0.16145596 4.5917748e-41
-232.76836 75.874756 -0.164976 4.5917748e-41
-232.56448 75.843941 -0.17455816 4.5917748e-41
-232.36539 75.852821 -0.18229865 4.5917748e-41
-232.16583 75.861206 -0.19007775 4.5917748e-41
-231.97252 75.876602 -0.17492437 4.5917748e-41
-231.7858 75.895493 -0.13571207 4.5917748e-41
-231.58698 75.907204 -0.14206448 4.5917748e-41
-231.39044 75.917503 -0.14839342 4.5917748e-41
-231.18985 75.927124 -0.15488906 4.5917748e-41
-230.90491 75.941757 -0.16407673 4.5917748e-41
-209.27454 75.820686 -0.11851723 1.793662e-43
-209.11203 75.836868 -0.10706699 1.793662e-43
-208.93076 75.85257 -0.11468576 1.793662e-43
-181.45599 75.876427 -0.038557999 1.1800861e-38
-180.25668 75.856194 -0.14394763 1.1800861e-38
-180.0639 75.875145 -0.1635498 1.1800861e-38
-179.87326 75.896523 -0.16213529 1.1800861e-38
-179.65797 75.91333 -0.11247073 1.1800861e-38
-179.53258 75.875076 -0.1420299 1.1800861e-38
-177.13806 75.841019 -0.16346271 1.1800861e-38
-176.90463 75.906471 -0.14240912 1.1800861e-38
-176.50616 75.961464 -0.15427865 1.1800861e-38
-174.63388 75.898384 -0.1065627 1.1800861e-38
-174.54175 75.916443 -0.1105549 1.1800861e-38
-172.04752 75.837494 -0.1241424 1.1800861e-38
-171.93402 75.898773 -0.14511809 1.1800861e-38
-169.61522 75.982758 -0.13179326 1.1800861e-38
-169.52148 75.895119 -0.12137961 1.1800861e-38
-167.08556 75.959053 -0.13851202 1.1800861e-38
-166.97081 75.957985 -0.078535579 1.1800861e-38
-164.62274 75.91761 -0.14612013 1.1800861e-38
-164.51923 75.95285 -0.14748441 1.1800861e-38
-162.03888 75.931511 -0.12993872 1.1800861e-38
-161.92871 75.948814 -0.12882464 1.1800861e-38
-159.63707 75.891357 -0.15063208 1.1800861e-38
-159.53091 75.941116 -0.13103276 1.1800861e-38
-159.38593 75.9496 -0.048072584 1.1800861e-38
-157.07452 75.938812 -0.15529861 1.1800861e-38
-156.95932 75.950386 -0.11623737 1.1800861e-38
-155.30983 75.864189 -0.10268559 1.1800861e-38
-155.13605 75.869904 -0.063208222 1.1800861e-38
-152.89546 75.845924 -0.19819699 1.1800861e-38
-121.10013 75.85685 -0.02111456 1.1754944e-38
-120.84534 75.855179 -0.015059388 1.1754944e-38
-120.68831 75.892288 -0.013891821 1.1754944e-38
-120.48993 75.900238 -0.013650397 1.1754944e-38
-120.29698 75.862419 -0.014542843 1.1754944e-38
-120.08684 75.883148 -0.012355687 1.1754944e-38
-117.84576 75.932167 -0.015266987 1.1800861e-38
-59.428036 75.907379 -0.086433329 1.1754944e-38
-59.28788 75.852509 -0.079065166 1.1754944e-38
-59.091366 75.881844 -0.08067587 1.1754944e-38
-58.875103 75.900497 -0.079390503 1.1754944e-38
-58.768837 75.90831 -0.082052954 1.1754944e-38
-5.7024384 75.854538 -0.10458598 4.5917748e-41
-285.88434 76.004425 -0.01767689 1.1800861e-38
-285.07712 76.040733 -0.047583845 1.1800861e-38
-284.67981 76.034668 -0.020798706 1.1800861e-38
-284.56857 76.076508 -0.023078479 1.1800861e-38
-284.37177 76.046661 -0.031239197 1.1800861e-38
-284.11099 76.089134 -0.038792782 1.1800861e-38
-283.90796 76.030136 -0.04833046 1.1800861e-38
-283.42352 76.104912 -0.0019384585 1.1800861e-38
-282.85605 76.104538 -0.020547636 1.1800861e-38
-282.67596 76.150436 -0.02444241 1.1800861e-38
-282.06497 76.185883 -0.034552887 1.1800861e-38
-281.92441 76.187408 -0.019671831 1.1800861e-38
-281.65173 76.195168 -0.0050965808 1.1800861e-38
-257.21216 76.104317 -0.10946283 1.1754944e-38
-257.05499 76.112587 -0.11503558 1.1754944e-38
-256.86044 76.12175 -0.1219825 1.1754944e-38
-256.65833 76.05925 -0.049151167 1.1754944e-38
-256.55246 76.047577 -0.044953711 1.1754944e-38
-256.28906 76.09552 -0.060114373 1.1754944e-38
-256.09207 76.106544 -0.0652484 1.1754944e-38
-255.89142 76.120232 -0.07040333 1.1754944e-38
-255.6785 76.095383 -0.092062108 1.1754944e-38
-255.49916 76.085342 -0.056217819 1.1754944e-38
-255.32195 76.123116 -0.048199285 1.1754944e-38
-255.00424 76.131035 -0.041166369 1.1754944e-38
-254.80559 76.142006 -0.045181565 1.1754944e-38
-254.60432 76.155296 -0.049161293 1.1754944e-38
-254.40651 76.16848 -0.053067479 1.1754944e-38
-254.2662 76.177597 -0.05584766 1.1754944e-38
-252.07982 76.06012 -0.13582821 1.793662e-43
-251.90187 76.066826 -0.1351966 1.793662e-43
-251.63652 76.046028 -0.063426211 1.793662e-43
-251.47031 76.042229 -0.056154892 1.793662e-43
-251.35138 76.050812 -0.058511317 1.793662e-43
-244.92931 76.079704 -0.15049024 1.793662e-43
-244.66267 76.071327 -0.12870941 1.793662e-43
-243.89098 76.04998 -0.043678802 1.793662e-43
-228.71254 76.072525 -0.19352335 4.5917748e-41
-228.53995 76.109085 -0.17690811 4.5917748e-41
-228.30316 76.104691 -0.16446418 4.5917748e-41
-228.10199 76.115379 -0.17247975 4.5917748e-41
-227.90553 76.127342 -0.18024419 4.5917748e-41
-227.70398 76.137535 -0.18829609 4.5917748e-41
-227.50366 76.147324 -0.19631323 4.5917748e-41
-227.32104 76.161011 -0.16053167 4.5917748e-41
-227.03543 76.161819 -0.17302762 4.5917748e-41
-226.91312 76.166801 -0.17820132 4.5917748e-41
-209.26639 76.025238 -0.15324903 1.793662e-43
-209.12943 76.049927 -0.09735392 1.793662e-43
-208.93079 76.052246 -0.10630766 1.793662e-43
-208.74463 76.135574 -0.040240575 1.793662e-43
-177.10683 76.024826 -0.13973048 1.1800861e-38
-176.90384 76.03006 -0.14340486 1.1800861e-38
-176.70738 76.05661 -0.1005953 1.1800861e-38
-176.48215 76.061859 -0.11647668 1.1800861e-38
-176.36224 76.088287 -0.10253459 1.1800861e-38
-175.25638 76.144577 -0.074374273 1.1800861e-38
-175.15445 76.114151 -0.11803462 1.1800861e-38
-174.95886 76.122154 -0.12782578 1.1800861e-38
-174.75571 76.123817 -0.13830251 1.1800861e-38
-174.56274 76.120178 -0.14849541 1.1800861e-38
-174.32523 76.164291 -0.11040821 1.1800861e-38
-174.11784 76.172905 -0.11406755 1.1800861e-38
-173.88789 76.183708 -0.1418962 1.1800861e-38
-172.04909 76.036453 -0.11529762 1.1800861e-38
-171.93906 76.059456 -0.13765113 1.1800861e-38
-169.62357 76.181793 -0.12251613 1.1800861e-38
-169.53041 76.128487 -0.12240929 1.1800861e-38
-167.09357 76.158356 -0.13423276 1.1800861e-38
-166.98044 76.157318 -0.06920588 1.1800861e-38
-164.61871 76.066528 -0.097720422 1.1800861e-38
-164.49402 76.164276 -0.15432258 1.1800861e-38
-164.39331 76.08136 -0.0077861771 1.1800861e-38
-162.0466 76.114464 -0.12185217 1.1800861e-38
-161.93814 76.147339 -0.12000261 1.1800861e-38
-159.65543 76.063736 -0.16424093 1.1800861e-38
-159.53073 76.141457 -0.12567662 1.1800861e-38
-159.38985 76.145844 -0.011713937 1.1800861e-38
-157.08176 76.139053 -0.14745837 1.1800861e-38
-156.9826 76.161285 -0.15191726 1.1800861e-38
-155.31934 76.064003 -0.094140276 1.1800861e-38
-155.15182 76.069664 -0.053572096 1.1800861e-38
-152.8179 76.069199 -0.19311748 1.1800861e-38
-152.77005 76.101761 -0.1022443 1.1800861e-38
-147.04242 76.176987 -0.16736132 1.1800861e-38
-146.93069 76.185287 -0.13489456 1.1800861e-38
-146.75563 76.188461 -0.035784155 1.1800861e-38
-121.29376 76.098335 -0.018006779 1.1754944e-38
-121.04639 76.068863 -0.016335167 1.1754944e-38
-120.86116 76.073135 -0.015050522 1.1754944e-38
-120.69608 76.097649 -0.017669858 1.1754944e-38
-120.49567 76.086487 -0.014891706 1.1754944e-38
-120.30431 76.083084 -0.013983121 1.1754944e-38
-120.07317 76.069153 -0.01330295 1.1754944e-38
-119.93605 76.096344 -0.023341481 1.1754944e-38
-117.85199 76.132103 -0.017409639 1.1800861e-38
-117.7174 76.151573 -0.00045191421 1.1800861e-38
-59.330921 76.094582 -0.076720186 1.1754944e-38
-59.077061 76.102852 -0.073302627 1.1754944e-38
-58.88448 76.083092 -0.065043181 1.1754944e-38
-58.774406 76.074463 -0.07023824 1.1754944e-38
-5.7137322 76.048149 -0.09196946 4.5917748e-41
-2.6933591 76.141342 -0.15626833 1.1800861e-38
-2.5822361 76.137375 -0.15824859 1.1800861e-38
-2.3820963 76.153038 -0.16032445 1.1800861e-38
-2.1869392 76.167671 -0.16239028 1.1800861e-38
-1.9864943 76.184998 -0.1643621 1.1800861e-38
-282.06497 76.24794 -0.032047085 1.1800861e-38
-281.93268 76.265015 -0.036434114 1.1800861e-38
-281.72049 76.253288 -0.030131953 1.1800861e-38
-281.47992 76.242111 -0.023515942 1.1800861e-38
-281.32593 76.264374 -0.027249733 1.1800861e-38
-281.1087 76.23011 -0.016773716 1.1800861e-38
-279.41742 76.376221 -0.048852146 1.1800861e-38
-279.27203 76.375031 -0.026914086 1.1800861e-38
-279.03201 76.375359 -0.0047746077 1.1800861e-38
-278.87201 76.384613 -0.015985927 1.1800861e-38
-278.66705 76.395302 -0.022607088 1.1800861e-38
-256.7179 76.233414 -0.10466644 1.1754944e-38
-256.4407 76.272285 -0.096408278 1.1754944e-38
-256.24521 76.299484 -0.10312469 1.1754944e-38
-256.08203 76.307556 -0.1093962 1.1754944e-38
-255.8643 76.256393 -0.12058122 1.1754944e-38
-255.67384 76.263786 -0.070287272 1.1754944e-38
-255.55103 76.262398 -0.051647633 1.1754944e-38
-255.21693 76.202774 -0.033478752 1.1754944e-38
-255.01872 76.213478 -0.037494525 1.1754944e-38
-254.82162 76.223152 -0.041527383 1.1754944e-38
-254.62907 76.233696 -0.045423038 1.1754944e-38
-254.41273 76.248169 -0.049693212 1.1754944e-38
-253.87653 76.240356 -0.02616797 1.1754944e-38
-253.77397 76.218185 -0.029138397 1.1754944e-38
-252.08476 76.261726 -0.12604427 1.793662e-43
-251.9088 76.266464 -0.12546712 1.793662e-43
-251.64946 76.246002 -0.054422818 1.793662e-43
-251.48425 76.240097 -0.047324453 1.793662e-43
-251.36624 76.25647 -0.049334496 1.793662e-43
-244.91176 76.270226 -0.1431295 1.793662e-43
-244.67502 76.269577 -0.11964974 1.793662e-43
-227.04845 76.206291 -0.17074755 4.5917748e-41
-226.91306 76.216797 -0.17628253 4.5917748e-41
-224.86203 76.314316 -0.16811511 4.5917748e-41
-224.68591 76.324768 -0.17563778 4.5917748e-41
-224.49002 76.334419 -0.18408331 4.5917748e-41
-224.29086 76.344025 -0.19267899 4.5917748e-41
-224.11595 76.395004 -0.19849932 4.5917748e-41
-223.7359 76.342926 -0.16128117 4.5917748e-41
-223.48439 76.361809 -0.17156856 4.5917748e-41
-223.28429 76.372391 -0.17992115 4.5917748e-41
-223.08347 76.379242 -0.18844543 4.5917748e-41
-222.88962 76.386833 -0.19663709 4.5917748e-41
-209.27011 76.221176 -0.14453623 1.793662e-43
-209.11153 76.239326 -0.14234075 1.793662e-43
-208.93405 76.251694 -0.097782321 1.793662e-43
-208.75151 76.27137 -0.034409299 1.793662e-43
-175.26819 76.202385 -0.10160904 1.1800861e-38
-175.1284 76.209442 -0.066053063 1.1800861e-38
-174.92934 76.219429 -0.076058574 1.1800861e-38
-174.72919 76.229858 -0.08610072 1.1800861e-38
-174.53404 76.238785 -0.095954187 1.1800861e-38
-174.33081 76.247025 -0.10625838 1.1800861e-38
-174.13742 76.256584 -0.11598927 1.1800861e-38
-173.88428 76.259857 -0.14504327 1.1800861e-38
-172.67786 76.288292 -0.1512989 1.1800861e-38
-172.5069 76.295433 -0.15992242 1.1800861e-38
-172.28653 76.316345 -0.17488474 1.1800861e-38
-172.07996 76.306908 -0.12301707 1.1800861e-38
-171.96143 76.31646 -0.12855141 1.1800861e-38
-169.6319 76.383049 -0.11314534 1.1800861e-38
-169.58739 76.384018 -0.11085965 1.1800861e-38
-167.08986 76.356926 -0.1288379 1.1800861e-38
-166.99129 76.355209 -0.048037484 1.1800861e-38
-164.47911 76.349174 -0.15560454 1.1800861e-38
-162.04431 76.33136 -0.13230848 1.1800861e-38
-161.95705 76.347504 -0.11656386 1.1800861e-38
-159.50255 76.360466 -0.13697182 1.1800861e-38
-157.06026 76.345306 -0.15583195 1.1800861e-38
-156.97441 76.346939 -0.10072248 1.1800861e-38
-155.31226 76.291664 -0.07276544 1.1800861e-38
-155.11859 76.27301 -0.046710104 1.1800861e-38
-152.8175 76.270584 -0.18437825 1.1800861e-38
-152.76965 76.289444 -0.095619746 1.1800861e-38
-147.04718 76.333435 -0.16088228 1.1800861e-38
-146.93835 76.345978 -0.12813029 1.1800861e-38
-146.77252 76.347702 -0.028116301 1.1800861e-38
-144.47771 76.374634 -0.16456662 1.1800861e-38
-144.36929 76.378448 -0.10969265 1.1800861e-38
-121.2429 76.29969 -0.017951973 1.1754944e-38
-121.06141 76.296181 -0.018014917 1.1754944e-38
-120.88692 76.268745 -0.017609583 1.1754944e-38
-120.75863 76.241692 -0.013138533 1.1754944e-38
-120.46209 76.263771 -0.017827157 1.1754944e-38
-120.26802 76.272781 -0.014592901 1.1754944e-38
-120.06209 76.288971 -0.014287146 1.1754944e-38
-119.93188 76.279877 -0.04487437 1.1754944e-38
-117.85614 76.336609 -0.018524071 1.1800861e-38
-117.72617 76.347504 -0.0030049817 1.1800861e-38
-58.88044 76.317421 -0.13376361 1.1754944e-38
-58.751335 76.277924 -0.031200483 1.1754944e-38
-5.7606096 76.260757 -0.13287896 4.5917748e-41
-2.6395874 76.285156 -0.12693879 1.1800861e-38
-2.4379032 76.341766 -0.12754138 1.1800861e-38
-2.2508383 76.317734 -0.1230846 1.1800861e-38
-2.0526204 76.331871 -0.12543593 1.1800861e-38
-1.8516827 76.348053 -0.12764253 1.1800861e-38
-1.6637119 76.335526 -0.13878784 1.1800861e-38
-1.4651887 76.35025 -0.14108229 1.1800861e-38
-1.2641064 76.36174 -0.14126992 1.1800861e-38
-1.1082013 76.340256 -0.10627506 1.1800861e-38
-0.93299747 76.33033 -0.12776409 1.1800861e-38
-0.7327655 76.346458 -0.12996423 1.1800861e-38
-0.53469086 76.361244 -0.13222072 1.1800861e-38
-0.29240036 76.348549 -0.13692406 1.1800861e-38
-281.38885 76.565308 -0.022798136 1.1800861e-38
-279.00043 76.533272 -0.013712123 1.1800861e-38
-278.89911 76.515564 -0.018653847 1.1800861e-38
-278.64532 76.469055 -0.03111995 1.1800861e-38
-278.44836 76.446335 -0.040250581 1.1800861e-38
-278.3313 76.457245 -0.044684324 1.1800861e-38
-278.18375 76.413986 -0.0020901635 1.1800861e-38
-277.71399 76.487335 -0.069183536 1.1800861e-38
-277.46854 76.523499 -0.014503856 1.1800861e-38
-277.39728 76.473129 -0.018092409 1.1800861e-38
-277.00134 76.501076 -0.045586139 1.1800861e-38
-276.81232 76.508347 -0.052867338 1.1800861e-38
-276.63519 76.515411 -0.03081831 1.1800861e-38
-276.49152 76.528854 -0.019437771 1.1800861e-38
-276.3447 76.541534 -0.0082616098 1.1800861e-38
-276.17761 76.563446 -0.015091226 1.1800861e-38
-275.92749 76.567215 -0.023827262 1.1800861e-38
-274.43839 76.584717 -0.0021936893 1.1800861e-38
-252.09131 76.461525 -0.11627805 1.793662e-43
-251.91383 76.46698 -0.11577824 1.793662e-43
-251.66103 76.443962 -0.045539614 1.793662e-43
-251.4984 76.476044 -0.043453865 1.793662e-43
-251.36063 76.487137 -0.038661242 1.793662e-43
-251.09091 76.557175 -0.012204647 1.793662e-43
-244.91809 76.46994 -0.13437779 1.793662e-43
-244.68701 76.470161 -0.11050379 1.793662e-43
-223.6958 76.428253 -0.1598213 4.5917748e-41
-223.515 76.43972 -0.16729629 4.5917748e-41
-220.81693 76.460266 -0.19652295 4.5917748e-41
-220.12726 76.510468 -0.16830762 4.5917748e-41
-219.87369 76.528786 -0.17884044 4.5917748e-41
-219.67505 76.540131 -0.1872113 4.5917748e-41
-219.476 76.551254 -0.19561088 4.5917748e-41
-209.27309 76.42186 -0.13566071 1.793662e-43
-209.12502 76.438499 -0.13312609 1.793662e-43
-208.92729 76.469208 -0.14898294 1.793662e-43
-208.75433 76.473785 -0.026101537 1.793662e-43
-170.2774 76.58197 -0.071623683 1.793662e-43
-169.62903 76.50663 -0.089839332 1.1800861e-38
-169.51952 76.495422 -0.16633317 1.1800861e-38
-169.28645 76.490303 -0.12320524 1.1800861e-38
-169.08612 76.502419 -0.13262911 1.1800861e-38
-168.90318 76.512413 -0.13909027 1.1800861e-38
-167.68903 76.548126 -0.13925166 1.1800861e-38
-167.51865 76.563477 -0.081030264 1.1800861e-38
-167.31744 76.574188 -0.090790041 1.1800861e-38
-167.08585 76.573624 -0.10681336 1.1800861e-38
-166.98611 76.563454 -0.039196409 1.1800861e-38
-164.48756 76.556023 -0.1442021 1.1800861e-38
-162.05124 76.531174 -0.12337186 1.1800861e-38
-161.96541 76.546234 -0.10782715 1.1800861e-38
-159.50978 76.548149 -0.13136066 1.1800861e-38
-157.06514 76.544624 -0.14814073 1.1800861e-38
-156.98157 76.546135 -0.092951432 1.1800861e-38
-155.2637 76.513641 -0.090914309 1.1800861e-38
-155.13268 76.482025 -0.036772013 1.1800861e-38
-152.8183 76.468376 -0.17572297 1.1800861e-38
-152.73932 76.520325 -0.13375029 1.1800861e-38
-147.0285 76.531647 -0.12634033 1.1800861e-38
-146.9335 76.546272 -0.11539748 1.1800861e-38
-146.78787 76.546898 -0.018830046 1.1800861e-38
-144.47917 76.532173 -0.15382878 1.1800861e-38
-144.36786 76.54158 -0.10298622 1.1800861e-38
-142.01611 76.556915 -0.16229865 1.1800861e-38
-141.91112 76.565964 -0.16770789 1.1800861e-38
-121.22121 76.542511 -0.030009182 1.1754944e-38
-121.09735 76.486908 -0.013685548 1.1754944e-38
-120.90204 76.470428 -0.013810758 1.1754944e-38
-120.70376 76.49073 -0.035988025 1.1754944e-38
-120.49315 76.421097 -0.012024317 1.1754944e-38
-120.27176 76.431763 -0.018929422 1.1754944e-38
-120.10125 76.440285 -0.015002737 1.1754944e-38
-119.95068 76.484375 -0.03575528 1.1754944e-38
-117.86008 76.538353 -0.020031378 1.1800861e-38
-117.72679 76.544136 -0.0055939313 1.1800861e-38
-58.862671 76.49649 -0.15342408 1.1754944e-38
-58.763428 76.406769 -0.043752223 1.1754944e-38
-5.750597 76.480301 -0.13626069 4.5917748e-41
-2.6617498 76.453735 -0.11317645 1.1800861e-38
-2.2254395 76.40889 -0.1157576 1.1800861e-38
-2.0266693 76.424202 -0.11780215 1.1800861e-38
-1.8277683 76.441055 -0.11977001 1.1800861e-38
-1.6391892 76.43866 -0.11309047 1.1800861e-38
-1.4392121 76.450722 -0.11566501 1.1800861e-38
-1.2368985 76.461197 -0.12065355 1.1800861e-38
-1.0732528 76.448769 -0.14205778 1.1800861e-38
-0.81727213 76.465096 -0.070996277 1.1800861e-38
-0.61621112 76.480431 -0.073156551 1.1800861e-38
-0.41813388 76.492973 -0.075441726 1.1800861e-38
-0.29676044 76.446045 -0.14245723 1.1800861e-38
-281.40271 76.764656 -0.036593989 1.1800861e-38
-279.01068 76.725616 -0.005463995 1.1800861e-38
-278.94409 76.722588 -0.0083619356 1.1800861e-38
-276.43414 76.601814 -0.0026324093 1.1800861e-38
-276.32974 76.611877 -0.0045346022 1.1800861e-38
-275.27237 76.603714 -0.045642577 1.1800861e-38
-274.27643 76.688499 -0.0042180344 1.1800861e-38
-274.06348 76.661324 -0.013283495 1.1800861e-38
-273.9137 76.682129 -0.018098395 1.1800861e-38
-271.79144 76.765213 -0.00293798 1.1800861e-38
-271.5986 76.779327 -0.0097386315 1.1800861e-38
-271.39294 76.791603 -0.017110586 1.1800861e-38
-252.20604 76.661758 -0.11746871 1.793662e-43
-252.05365 76.663849 -0.10048047 1.793662e-43
-251.92014 76.665848 -0.10611131 1.793662e-43
-251.6777 76.644165 -0.036437448 1.793662e-43
-251.52058 76.652954 -0.035019025 1.793662e-43
-251.36966 76.672348 -0.032560781 1.793662e-43
-251.13051 76.668594 -0.0063929465 1.793662e-43
-244.94772 76.705078 -0.1273488 1.793662e-43
-244.68817 76.672653 -0.10172872 1.793662e-43
-240.91409 76.715042 -0.12860174 1.1754944e-38
-240.76192 76.701019 -0.13627583 1.1754944e-38
-240.49261 76.71244 -0.14816962 1.1754944e-38
-216.55748 76.756279 -0.16403651 4.5917748e-41
-216.28206 76.751213 -0.17607053 4.5917748e-41
-216.08261 76.762451 -0.18419845 4.5917748e-41
-215.88318 76.775185 -0.19226755 4.5917748e-41
-209.27998 76.638702 -0.12588924 1.793662e-43
-209.13849 76.637955 -0.12390117 1.793662e-43
-208.93375 76.654495 -0.14067444 1.793662e-43
-208.75804 76.665161 -0.018192589 1.793662e-43
-186.54297 76.789299 -0.19427207 1.1754944e-38
-170.43333 76.699333 -0.077937528 1.793662e-43
-170.25522 76.754715 -0.065096103 1.793662e-43
-170.17342 76.71534 -0.077120878 1.793662e-43
-167.7019 76.629074 -0.13922314 1.1800861e-38
-167.47675 76.648811 -0.079462349 1.1800861e-38
-167.27664 76.660263 -0.089133814 1.1800861e-38
-167.09724 76.673599 -0.097670093 1.1800861e-38
-166.87433 76.644783 -0.11017425 1.1800861e-38
-166.69159 76.632271 -0.12425394 1.1800861e-38
-166.49384 76.641357 -0.13090231 1.1800861e-38
-166.33743 76.641983 -0.14004107 1.1800861e-38
-165.10652 76.704567 -0.14911032 1.1800861e-38
-164.90784 76.684517 -0.16011795 1.1800861e-38
-164.77966 76.680954 -0.14992738 1.1800861e-38
-164.51221 76.737755 -0.13495614 1.1800861e-38
-162.05991 76.700577 -0.15546261 1.1800861e-38
-161.96063 76.746788 -0.14911632 1.1800861e-38
-159.51709 76.746017 -0.12321728 1.1800861e-38
-157.05824 76.745834 -0.14488435 1.1800861e-38
-156.97791 76.740433 -0.051065527 1.1800861e-38
-155.24684 76.700378 -0.099669077 1.1800861e-38
-155.14642 76.67318 -0.027631596 1.1800861e-38
-152.83034 76.667877 -0.16632193 1.1800861e-38
-152.74255 76.691177 -0.12680835 1.1800861e-38
-147.03967 76.726707 -0.11810609 1.1800861e-38
-146.93977 76.746269 -0.1071187 1.1800861e-38
-144.48033 76.724678 -0.15083091 1.1800861e-38
-144.34889 76.743652 -0.051888768 1.1800861e-38
-142.04257 76.710251 -0.17704579 1.1800861e-38
-141.91957 76.726906 -0.16052601 1.1800861e-38
-140.12599 76.699028 -0.12447113 1.1800861e-38
-139.92268 76.713455 -0.05615364 1.1800861e-38
-122.31252 76.747696 -0.018107794 4.5917748e-41
-121.20116 76.712738 -0.011708781 1.1754944e-38
-121.1282 76.727654 -0.0077665909 1.1754944e-38
-120.22948 76.679794 -0.016396675 1.1754944e-38
-120.17741 76.684898 -0.0097862715 1.1754944e-38
-119.99861 76.633812 -0.067307964 1.1754944e-38
-117.86634 76.736023 -0.021281874 1.1800861e-38
-117.76791 76.707512 -0.0076121115 1.1800861e-38
-58.900719 76.62674 -0.061797131 1.1754944e-38
-5.8083892 76.67112 -0.15862295 4.5917748e-41
-5.7385597 76.66227 -0.10592204 4.5917748e-41
-2.7094584 76.680443 -0.11234898 1.1800861e-38
-281.40631 76.962677 -0.028458804 1.1800861e-38
-278.98785 76.839287 -0.0017939359 1.1800861e-38
-273.88864 76.936722 -0.0090766698 1.1800861e-38
-271.60706 76.856934 -0.0060895383 1.1800861e-38
-271.40771 76.867355 -0.013297364 1.1800861e-38
-271.21185 76.873405 -0.020559937 1.1800861e-38
-271.10623 76.829231 -0.02650748 1.1800861e-38
-270.69803 76.880638 -0.039981503 1.1800861e-38
-270.46997 76.869377 -0.049220901 1.1800861e-38
-270.26526 76.894165 -0.056019951 1.1800861e-38
-270.07004 76.911499 -0.017246295 1.1800861e-38
-269.95828 76.920288 -0.021098319 1.1800861e-38
-269.76282 76.933212 -0.027939409 1.1800861e-38
-269.5563 76.901855 -0.037105262 1.1800861e-38
-269.39352 76.916443 -0.042639069 1.1800861e-38
-269.11801 76.928368 -0.0037873015 1.1800861e-38
-268.9187 76.943268 -0.010299563 1.1800861e-38
-268.78683 76.958313 -0.014383256 1.1800861e-38
-268.23468 76.992485 -0.0327297 1.1800861e-38
-268.11816 76.989708 -0.037032485 1.1800861e-38
-252.21736 76.85997 -0.10747968 1.793662e-43
-252.06508 76.858917 -0.090771288 1.793662e-43
-251.93097 76.862045 -0.096375048 1.793662e-43
-251.69096 76.840828 -0.027570512 1.793662e-43
-251.52087 76.848602 -0.024319477 1.793662e-43
-251.33228 76.882179 -0.037255857 1.793662e-43
-244.9321 76.859344 -0.10881577 1.793662e-43
-244.68852 76.870117 -0.093203425 1.793662e-43
-244.58432 76.893669 -0.096537545 1.793662e-43
-241.29407 76.815079 -0.10641579 1.1754944e-38
-241.1618 76.807693 -0.11286192 1.1754944e-38
-240.97031 76.803085 -0.1219124 1.1754944e-38
-240.7639 76.910339 -0.12644652 1.1754944e-38
-240.58026 76.842186 -0.13808987 1.1754944e-38
-240.32027 76.872719 -0.1293648 1.1754944e-38
-240.03772 76.937653 -0.055083815 1.1754944e-38
-239.89764 76.975746 -0.043651525 1.1754944e-38
-239.69415 76.987778 -0.04439272 1.1754944e-38
-239.55943 76.999046 -0.071609423 1.1754944e-38
-216.49275 76.811256 -0.16465539 4.5917748e-41
-216.2972 76.826302 -0.17246658 4.5917748e-41
-216.09976 76.838715 -0.18046202 4.5917748e-41
-215.93126 76.848831 -0.18730488 4.5917748e-41
-215.01915 76.811096 -0.18481484 4.5917748e-41
-214.94664 76.82206 -0.18748324 4.5917748e-41
-212.93958 76.898323 -0.19392669 4.5917748e-41
-211.81334 76.939522 -0.18787146 4.5917748e-41
-211.69766 76.946175 -0.1930729 4.5917748e-41
-209.27625 76.821655 -0.16055593 1.793662e-43
-209.16492 76.835327 -0.12264206 1.793662e-43
-208.94083 76.855347 -0.13168384 1.793662e-43
-208.76582 76.864525 -0.0097512193 1.793662e-43
-188.47318 76.903625 -0.15100931 1.1754944e-38
-188.29633 76.920837 -0.11266502 1.1754944e-38
-188.08821 76.928825 -0.11582187 1.1754944e-38
-187.88879 76.936493 -0.12515451 1.1754944e-38
-187.68965 76.939827 -0.13468407 1.1754944e-38
-187.48958 76.942047 -0.1443112 1.1754944e-38
-187.29057 76.946587 -0.15377615 1.1754944e-38
-187.12439 76.95549 -0.11289755 1.1754944e-38
-186.92805 76.96006 -0.12267786 1.1754944e-38
-186.70828 76.93351 -0.12891984 1.1754944e-38
-186.52614 76.904694 -0.1480912 1.1754944e-38
-186.32796 76.917114 -0.15542087 1.1754944e-38
-186.10605 76.943604 -0.12207432 1.1754944e-38
-185.93079 76.96331 -0.17270473 1.1754944e-38
-170.44388 76.976196 -0.025440462 1.793662e-43
-170.28403 76.928787 -0.05560445 1.793662e-43
-170.17018 76.952988 -0.060518548 1.793662e-43
-165.1525 76.802048 -0.07340347 1.1800861e-38
-164.91727 76.814087 -0.033895303 1.1800861e-38
-164.64891 76.832237 -0.0034456998 1.1800861e-38
-162.05521 76.89856 -0.088684648 1.1800861e-38
-161.94905 76.917603 -0.14239474 1.1800861e-38
-161.75122 76.902458 -0.12097178 1.1800861e-38
-161.55144 76.915703 -0.13025747 1.1800861e-38
-161.30232 76.928429 -0.15291971 1.1800861e-38
-160.10397 76.967804 -0.13490349 1.1800861e-38
-159.89224 76.979706 -0.15244779 1.1800861e-38
-159.75935 76.979034 -0.1947314 1.1800861e-38
-159.51665 76.964211 -0.11466658 1.1800861e-38
-157.06256 76.94281 -0.13733506 1.1800861e-38
-156.98705 76.93985 -0.042967759 1.1800861e-38
-155.26869 76.930756 -0.13471027 1.1800861e-38
-155.15816 76.871109 -0.018317133 1.1800861e-38
-152.84189 76.875809 -0.15605888 1.1800861e-38
-152.73456 76.900154 -0.11535428 1.1800861e-38
-147.0291 76.91317 -0.15305547 1.1800861e-38
-146.93109 76.95488 -0.14870015 1.1800861e-38
-144.49078 76.90136 -0.14600591 1.1800861e-38
-144.36075 76.943344 -0.043091662 1.1800861e-38
-142.04739 76.879288 -0.16987881 1.1800861e-38
-141.94679 76.927414 -0.17331399 1.1800861e-38
-140.21344 76.847626 -0.16932172 1.1800861e-38
-140.09863 76.861771 -0.10604447 1.1800861e-38
-139.9332 76.872955 -0.049129203 1.1800861e-38
-137.69861 76.861038 -0.14613561 1.1800861e-38
-137.51704 76.875351 -0.051854394 1.1800861e-38
-122.31976 76.923111 -0.018827196 4.5917748e-41
-121.147 76.885994 -0.0080707092 1.1754944e-38
-120.24338 76.847504 -0.019505914 1.1754944e-38
-120.15108 76.894363 -0.014692063 1.1754944e-38
-117.87479 76.939476 -0.02422745 1.1800861e-38
